-1.428357720375061,-0.00631649699062109,0.01752946525812149
-1.4285043478012085,-0.006316788960248232,0.008765303529798985
-1.4286508560180664,-0.006317317485809326,2.624302358776099e-16
-1.4287973642349243,-0.006318084429949522,-0.008767100982367992
-1.4289438724517822,-0.006319089327007532,-0.01753666065633297
-1.4290906190872192,-0.006320333108305931,-0.026309343054890633
-1.4292371273040771,-0.00632181391119957,-0.03508580103516579
-1.4293843507766724,-0.006323536392301321,-0.04386672377586365
-1.4295308589935303,-0.006325495429337025,-0.052652742713689804
-1.4296777248382568,-0.0063276938162744045,-0.06144453585147858
-1.4298248291015625,-0.00633013341575861,-0.07024278491735458
-1.4299719333648682,-0.006332813296467066,-0.07904815673828125
-1.430119276046753,-0.006335734389722347,-0.0878613144159317
-1.4302667379379272,-0.0063388957642018795,-0.09668292850255966
-1.4304146766662598,-0.006342301610857248,-0.10551372170448303
-1.430562138557434,-0.006345947273075581,-0.11435429006814957
-1.4307101964950562,-0.006349837873131037,-0.12320539355278015
-1.4308581352233887,-0.0063539715483784676,-0.13206766545772552
-1.431006669998169,-0.0063583520241081715,-0.14094185829162598
-1.4311553239822388,-0.006362977437674999,-0.14982861280441284
-1.4313039779663086,-0.0063678487204015255,-0.15872861444950104
-1.4314531087875366,-0.006372968666255474,-0.16764262318611145
-1.4316017627716064,-0.006378334481269121,-0.17657123506069183
-1.4317516088485718,-0.006383953616023064,-0.18551534414291382
-1.4319013357162476,-0.0063898214139044285,-0.19447550177574158
-1.4320513010025024,-0.006395941134542227,-0.20345249772071838
-1.4322013854980469,-0.006402313243597746,-0.21244700253009796
-1.4323525428771973,-0.006408942863345146,-0.22145992517471313
-1.4325031042099,-0.006415823940187693,-0.23049169778823853
-1.4326542615890503,-0.00642296252772212,-0.23954328894615173
-1.4328057765960693,-0.006430360488593578,-0.24861538410186768
-1.4329575300216675,-0.006438016891479492,-0.25770872831344604
-1.4331101179122925,-0.006445936858654022,-0.2668241858482361
-1.433262825012207,-0.0064541189931333065,-0.27596238255500793
-1.4334160089492798,-0.006462565157562494,-0.28512418270111084
-1.4335694313049316,-0.0064712767489254475,-0.2943102717399597
-1.4337233304977417,-0.006480257026851177,-0.3035215735435486
-1.390773892402649,-0.03826436027884483,2.526869297027588
-1.391294240951538,-0.03785734996199608,2.491501808166504
-1.3918184041976929,-0.037460699677467346,2.4569032192230225
-1.3922603130340576,-0.03707175329327583,2.422896385192871
-1.3927361965179443,-0.03669330105185509,2.3896615505218506
-1.393237590789795,-0.036324769258499146,2.357156276702881
-1.3936653137207031,-0.0359632633626461,2.3251900672912598
-1.39409339427948,-0.03561043366789818,2.2938671112060547
-1.394535779953003,-0.035266343504190445,2.263188362121582
-1.3949220180511475,-0.03492894768714905,2.2330193519592285
-1.3953384160995483,-0.03460016846656799,2.2034802436828613
-1.3956955671310425,-0.0342775322496891,2.174410581588745
-1.3961125612258911,-0.03396374359726906,2.145979166030884
-1.3965092897415161,-0.03365659713745117,2.1180431842803955
-1.3968385457992554,-0.033354755491018295,2.0905165672302246
-1.3972315788269043,-0.03306116163730621,2.0635812282562256
-1.3975452184677124,-0.032772213220596313,2.0370092391967773
-1.3978960514068604,-0.032490476965904236,2.010957717895508
-1.3982162475585938,-0.032214175909757614,1.9853146076202393
-1.3985830545425415,-0.03194491192698479,1.960175633430481
-1.398880958557129,-0.031679876148700714,1.9353657960891724
-1.3992234468460083,-0.0314214862883091,1.911030888557434
-1.3995171785354614,-0.03116747736930847,1.8870304822921753
-1.3998000621795654,-0.030918560922145844,1.8634059429168701
-1.4001072645187378,-0.030675364658236504,1.8401926755905151
-1.4003844261169434,-0.030436556786298752,1.8173083066940308
-1.4006779193878174,-0.03020300716161728,1.7948029041290283
-1.4009395837783813,-0.029973549768328667,1.7726048231124878
-1.4012104272842407,-0.029748940840363503,1.7507569789886475
-1.4014451503753662,-0.029528101906180382,1.7291938066482544
-1.4017083644866943,-0.02931228093802929,1.7079867124557495
-1.4019535779953003,-0.029100382700562477,1.6870691776275635
-1.4022141695022583,-0.02889299765229225,1.6664737462997437
-1.402439832687378,-0.028688982129096985,1.6461323499679565
-1.4026391506195068,-0.028488418087363243,1.6260485649108887
-1.4028878211975098,-0.02829275093972683,1.6063026189804077
-1.4030808210372925,-0.028099754825234413,1.5867661237716675
-1.4033008813858032,-0.027911007404327393,1.5675268173217773
-1.4035162925720215,-0.027725784108042717,1.5485416650772095
-1.4036970138549805,-0.027543405070900917,1.529771327972412
-1.4038993120193481,-0.027364902198314667,1.5112714767456055
-1.4040778875350952,-0.027189305052161217,1.4929866790771484
-1.4042717218399048,-0.027017295360565186,1.4749526977539062
-1.404451608657837,-0.02684823051095009,1.4571329355239868
-1.404622197151184,-0.026682134717702866,1.439526915550232
-1.4047900438308716,-0.026519060134887695,1.4221359491348267
-1.4050664901733398,-0.026361029595136642,1.4050664901733398
-1.4053492546081543,-0.026206031441688538,1.3882079124450684
-1.4056286811828613,-0.026053819805383682,1.3715459108352661
-1.4059042930603027,-0.025904323905706406,1.3550751209259033
-1.4061766862869263,-0.025757497176527977,1.3387914896011353
-1.4064468145370483,-0.025613298639655113,1.3226916790008545
-1.406713843345642,-0.025471655651926994,1.3067702054977417
-1.406977653503418,-0.025332516059279442,1.2910232543945312
-1.4072390794754028,-0.025195840746164322,1.275447130203247
-1.4074970483779907,-0.025061557069420815,1.2600370645523071
-1.407752513885498,-0.024929635226726532,1.244789958000183
-1.4080053567886353,-0.024800024926662445,1.2297019958496094
-1.408255696296692,-0.024672681465744972,1.214769721031189
-1.4085034132003784,-0.024547556415200233,1.1999893188476562
-1.408748745918274,-0.024424610659480095,1.1853575706481934
-1.4089910984039307,-0.024303792044520378,1.1708707809448242
-1.409231424331665,-0.024185076355934143,1.1565263271331787
-1.4094693660736084,-0.02406841516494751,1.1423207521438599
-1.4097052812576294,-0.023953774943947792,1.1282511949539185
-1.4099390506744385,-0.023841114714741707,1.1143145561218262
-1.4101699590682983,-0.023730389773845673,1.1005074977874756
-1.410399079322815,-0.0236215777695179,1.0868276357650757
-1.4106261730194092,-0.02351464331150055,1.0732723474502563
-1.4108517169952393,-0.023409556597471237,1.0598390102386475
-1.4110749959945679,-0.02330627292394638,1.0465245246887207
-1.4112958908081055,-0.023204760625958443,1.033326268196106
-1.4115153551101685,-0.02310500293970108,1.0202422142028809
-1.4117323160171509,-0.023006951436400414,1.007269263267517
-1.4119477272033691,-0.022910593077540398,0.9944058060646057
-1.4121614694595337,-0.022815892472863197,0.9816491007804871
-1.4123735427856445,-0.02272282913327217,0.9689971208572388
-1.4125841856002808,-0.02263137325644493,0.9564476013183594
-1.4127923250198364,-0.022541482001543045,0.9439976811408997
-1.4129990339279175,-0.022453147917985916,0.9316458702087402
-1.4132047891616821,-0.022366352379322052,0.9193906188011169
-1.4134082794189453,-0.022281048819422722,0.9072287082672119
-1.4136104583740234,-0.022197233512997627,0.8951589465141296
-1.413811445236206,-0.02211487665772438,0.8831794261932373
-1.4140105247497559,-0.022033950313925743,0.8712877631187439
-1.414207935333252,-0.021954433992505074,0.8594821691513062
-1.4144041538238525,-0.021876312792301178,0.8477612137794495
-1.4145994186401367,-0.021799571812152863,0.8361231684684753
-1.4147931337356567,-0.02172417752444744,0.8245660066604614
-1.414984941482544,-0.021650107577443123,0.8130877017974854
-1.415176272392273,-0.021577363833785057,0.801687479019165
-1.4153653383255005,-0.021505897864699364,0.790362536907196
-1.415554165840149,-0.021435724571347237,0.7791126370429993
-1.4157414436340332,-0.021366802975535393,0.7679352164268494
-1.4159271717071533,-0.021299118176102638,0.7568288445472717
-1.4161124229431152,-0.021232668310403824,0.74579256772995
-1.4162956476211548,-0.021167410537600517,0.7348240613937378
-1.416478157043457,-0.021103354170918465,0.723922610282898
-1.4166595935821533,-0.021040473133325577,0.7130865454673767
-1.4168401956558228,-0.020978756248950958,0.702314555644989
-1.4170194864273071,-0.020918183028697968,0.6916050314903259
-1.4171979427337646,-0.02085874229669571,0.6809569001197815
-1.4173754453659058,-0.02080042101442814,0.6703686118125916
-1.4175515174865723,-0.020743196830153465,0.6598389148712158
-1.4177268743515015,-0.02068706974387169,0.6493666768074036
-1.4179015159606934,-0.020632019266486168,0.6389506459236145
-1.4180748462677002,-0.02057803049683571,0.6285893321037292
-1.4182474613189697,-0.020525095984339714,0.6182818412780762
-1.4184191226959229,-0.02047320269048214,0.6080268025398254
-1.4185898303985596,-0.02042233571410179,0.5978230834007263
-1.4187595844268799,-0.020372483879327774,0.5876694917678833
-1.4189292192459106,-0.020323647186160088,0.5775652527809143
-1.419097661972046,-0.020275801420211792,0.5675087571144104
-1.4192649126052856,-0.020228935405611992,0.5574990510940552
-1.4194315671920776,-0.02018304355442524,0.5475351810455322
-1.4195979833602905,-0.020138124004006386,0.5376161932945251
-1.4197630882263184,-0.02009415253996849,0.5277407169342041
-1.4199280738830566,-0.020051132887601852,0.5179080963134766
-1.4200913906097412,-0.020009037107229233,0.5081168413162231
-1.4202549457550049,-0.019967878237366676,0.49836650490760803
-1.4204175472259521,-0.019927632063627243,0.4886557161808014
-1.420579195022583,-0.019888292998075485,0.4789835810661316
-1.4207406044006348,-0.019849859178066254,0.46934929490089417
-1.4209011793136597,-0.019812317565083504,0.45975178480148315
-1.4210615158081055,-0.019775662571191788,0.4501901865005493
-1.4212210178375244,-0.01973988302052021,0.44066351652145386
-1.421379804611206,-0.019704969599843025,0.43117085099220276
-1.421538233757019,-0.019670924171805382,0.42171141505241394
-1.4216958284378052,-0.019637728109955788,0.41228416562080383
-1.4218533039093018,-0.01960538700222969,0.4028884172439575
-1.4220097064971924,-0.01957388035953045,0.39352309703826904
-1.422165870666504,-0.01954321376979351,0.3841875195503235
-1.4223219156265259,-0.019513379782438278,0.3748808801174164
-1.4224772453308105,-0.019484367221593857,0.3656022250652313
-1.422631859779358,-0.01945616863667965,0.35635071992874146
-1.4227861166000366,-0.019428784027695656,0.3471256494522095
-1.4229404926300049,-0.019402209669351578,0.3379262387752533
-1.4230936765670776,-0.019376428797841072,0.32875144481658936
-1.4232465028762817,-0.019351445138454437,0.3196007013320923
-1.423399806022644,-0.019327262416481972,0.31047332286834717
-1.4235519170761108,-0.019303854554891586,0.30136823654174805
-1.4237041473388672,-0.019281236454844475,0.2922849655151367
-1.4238557815551758,-0.019259393215179443,0.2832225263118744
-1.4240069389343262,-0.019238317385315895,0.27418023347854614
-1.4241576194763184,-0.01921801082789898,0.2651573419570923
-1.4243086576461792,-0.019198479130864143,0.25615328550338745
-1.4244589805603027,-0.019179701805114746,0.24716708064079285
-1.4246089458465576,-0.019161678850650787,0.23819808661937714
-1.4247584342956543,-0.019144410267472267,0.22924555838108063
-1.4249076843261719,-0.019127890467643738,0.2203088402748108
-1.4250571727752686,-0.019112126901745796,0.2113872617483139
-1.4252058267593384,-0.01909709721803665,0.20247995853424072
-1.4253549575805664,-0.019082820042967796,0.19358639419078827
-1.4255032539367676,-0.01906927302479744,0.1847057193517685
-1.4256516695022583,-0.019056467339396477,0.17583736777305603
-1.42579984664917,-0.01904439367353916,0.1669805645942688
-1.4259480237960815,-0.019033053889870644,0.15813465416431427
-1.426095962524414,-0.019022442400455475,0.14929895102977753
-1.4262433052062988,-0.01901255175471306,0.14047269523143768
-1.4263911247253418,-0.01900339685380459,0.13165536522865295
-1.4265382289886475,-0.018994957208633423,0.12284612655639648
-1.426685094833374,-0.01898723654448986,0.11404436826705933
-1.4268324375152588,-0.018980246037244797,0.10524947941303253
-1.426979422569275,-0.018973970785737038,0.096460722386837
-1.4271262884140015,-0.018968412652611732,0.08767743408679962
-1.427273154258728,-0.01896357350051403,0.07889896631240845
-1.4274194240570068,-0.018959442153573036,0.07012461870908737
-1.427566647529602,-0.01895603910088539,0.06135380640625954
-1.4277127981185913,-0.018953340128064156,0.05258577689528465
-1.4278594255447388,-0.018951360136270523,0.04381993040442467
-1.4280064105987549,-0.018950099125504494,0.03505558893084526
-1.4281530380249023,-0.01894954778254032,0.02629208005964756
-1.4282993078231812,-0.018949704244732857,0.017528750002384186
-1.4284460544586182,-0.018950581550598145,0.008764944970607758
-1.4285924434661865,-0.01895216666162014,2.624195156168712e-16
-1.428739070892334,-0.01895446889102459,-0.00876674335449934
-1.4288856983184814,-0.018957484513521194,-0.017535945400595665
-1.4290322065353394,-0.018961211666464806,-0.026308266445994377
-1.4291788339614868,-0.01896565780043602,-0.03508437052369118
-1.429325819015503,-0.018970822915434837,-0.04386493191123009
-1.4294724464416504,-0.01897669956088066,-0.05265058949589729
-1.4296190738677979,-0.01898329332470894,-0.061442017555236816
-1.4297664165496826,-0.018990615382790565,-0.07023991644382477
-1.4299136400222778,-0.018998654559254646,-0.07904493063688278
-1.430060863494873,-0.01900741644203663,-0.08785772323608398
-1.4302083253860474,-0.019016902893781662,-0.09667898714542389
-1.4303561449050903,-0.019027119502425194,-0.10550940781831741
-1.4305037260055542,-0.019038056954741478,-0.1143496185541153
-1.4306515455245972,-0.01904972642660141,-0.12320034950971603
-1.4307996034622192,-0.01906212978065014,-0.13206227123737335
-1.4309483766555786,-0.01907527446746826,-0.14093612134456635
-1.4310967922210693,-0.019089147448539734,-0.14982248842716217
-1.4312454462051392,-0.0191037617623806,-0.1587221324443817
-1.4313944578170776,-0.01911912113428116,-0.16763576865196228
-1.4315434694290161,-0.01913522183895111,-0.1765640527009964
-1.431693196296692,-0.019152076914906502,-0.18550777435302734
-1.4318428039550781,-0.019169680774211884,-0.19446755945682526
-1.4319928884506226,-0.019188040867447853,-0.2034441977739334
-1.4321430921554565,-0.01920715905725956,-0.21243834495544434
-1.4322938919067383,-0.0192270427942276,-0.22145085036754608
-1.43244469165802,-0.019247688353061676,-0.2304822951555252
-1.4325954914093018,-0.019269103184342384,-0.239533469080925
-1.4327472448349,-0.01929129846394062,-0.24860523641109467
-1.4328988790512085,-0.019314268603920937,-0.2576981782913208
-1.4330514669418335,-0.019338026642799377,-0.2668132483959198
-1.4332044124603271,-0.01936257630586624,-0.2759511172771454
-1.4333574771881104,-0.01938791386783123,-0.28511252999305725
-1.4335110187530518,-0.019414052367210388,-0.29429829120635986
-1.4336645603179932,-0.019440986216068268,-0.3035091161727905
-1.3908194303512573,-0.06378266960382462,2.526952028274536
-1.3913346529006958,-0.06310399621725082,2.4915740489959717
-1.3918578624725342,-0.062442779541015625,2.45697283744812
-1.3922996520996094,-0.06179444119334221,2.4229648113250732
-1.3927757740020752,-0.06116361916065216,2.3897292613983154
-1.3932771682739258,-0.06054931506514549,2.3572232723236084
-1.3937057256698608,-0.05994676053524017,2.3252575397491455
-1.394134759902954,-0.05935866758227348,2.2939350605010986
-1.3945773839950562,-0.058785125613212585,2.2632558345794678
-1.3949637413024902,-0.05822272598743439,2.233086109161377
-1.3953803777694702,-0.057674698531627655,2.2035465240478516
-1.3957388401031494,-0.05713695287704468,2.174478054046631
-1.3961557149887085,-0.05661389231681824,2.146045446395874
-1.396552562713623,-0.05610191449522972,2.1181089878082275
-1.3968816995620728,-0.055598773062229156,2.090581178665161
-1.3972748517990112,-0.05510938912630081,2.063645124435425
-1.3975884914398193,-0.05462774634361267,2.03707218170166
-1.3979390859603882,-0.05415811017155647,2.011019706726074
-1.3982586860656738,-0.05369752272963524,1.985374927520752
-1.3986248970031738,-0.05324866995215416,1.9602344036102295
-1.3989228010177612,-0.052806880325078964,1.9354236125946045
-1.3992652893066406,-0.052376169711351395,1.911087989807129
-1.3995592594146729,-0.051952775567770004,1.8870872259140015
-1.3998422622680664,-0.05153786391019821,1.8634620904922485
-1.4001491069793701,-0.05113247409462929,1.8402478694915771
-1.4004263877868652,-0.05073440447449684,1.8173627853393555
-1.4007201194763184,-0.05034511163830757,1.7948570251464844
-1.4009817838668823,-0.04996262863278389,1.7726582288742065
-1.4012527465820312,-0.04958823695778847,1.750809907913208
-1.4014874696731567,-0.04922012239694595,1.7292461395263672
-1.401750922203064,-0.04886037856340408,1.7080384492874146
-1.4019957780838013,-0.04850716143846512,1.6871200799942017
-1.4022570848464966,-0.048161495476961136,1.6665247678756714
-1.4024831056594849,-0.04782143235206604,1.6461831331253052
-1.4026823043823242,-0.04748711362481117,1.6260986328125
-1.4029308557510376,-0.04716094955801964,1.6063518524169922
-1.403124213218689,-0.046839259564876556,1.5868152379989624
-1.4033442735671997,-0.046524640172719955,1.5675753355026245
-1.4035602807998657,-0.046215906739234924,1.548590064048767
-1.4037408828735352,-0.04591190069913864,1.529819130897522
-1.4039435386657715,-0.04561436176300049,1.5113190412521362
-1.404121994972229,-0.04532165825366974,1.493033528327942
-1.404315710067749,-0.04503493010997772,1.474998950958252
-1.4044957160949707,-0.04475312680006027,1.4571787118911743
-1.4046663045883179,-0.044476259499788284,1.4395720958709717
-1.4048676490783691,-0.04420548677444458,1.4222146272659302
-1.4051100015640259,-0.04394099488854408,1.4051100015640259
-1.4053927659988403,-0.04368262737989426,1.3882509469985962
-1.405672311782837,-0.04342890903353691,1.3715884685516357
-1.4059478044509888,-0.0431797131896019,1.3551170825958252
-1.406220555305481,-0.042934976518154144,1.338833212852478
-1.406490683555603,-0.042694613337516785,1.322732925415039
-1.4067574739456177,-0.04245850816369057,1.3068108558654785
-1.4070212841033936,-0.04222657531499863,1.2910633087158203
-1.4072827100753784,-0.04199874773621559,1.275486707687378
-1.4075409173965454,-0.041774921119213104,1.2600764036178589
-1.4077965021133423,-0.041555024683475494,1.2448288202285767
-1.4080491065979004,-0.0413389727473259,1.2297402620315552
-1.4082995653152466,-0.04112670570611954,1.2148075103759766
-1.4085471630096436,-0.04091813415288925,1.2000266313552856
-1.4087923765182495,-0.040713194757699966,1.1853944063186646
-1.4090349674224854,-0.040511809289455414,1.1709072589874268
-1.4092754125595093,-0.040313925594091415,1.1565624475479126
-1.409513235092163,-0.04011945426464081,1.142356276512146
-1.4097490310668945,-0.039928361773490906,1.1282862424850464
-1.4099828004837036,-0.03974056988954544,1.114349126815796
-1.410213828086853,-0.039556004106998444,1.100541591644287
-1.4104429483413696,-0.03937462717294693,1.086861491203308
-1.4106701612472534,-0.039196379482746124,1.0733058452606201
-1.410895824432373,-0.039021216332912445,1.0598721504211426
-1.411118745803833,-0.03884904459118843,1.0465569496154785
-1.4113396406173706,-0.038679834455251694,1.0333582162857056
-1.4115592241287231,-0.03851355239748955,1.0202739238739014
-1.4117764234542847,-0.03835011646151543,1.0073007345199585
-1.4119917154312134,-0.038189493119716644,0.9944367408752441
-1.4122055768966675,-0.03803164139389992,0.9816797375679016
-1.4124174118041992,-0.03787650913000107,0.9690272212028503
-1.4126280546188354,-0.03772405907511711,0.9564772248268127
-1.4128363132476807,-0.037574224174022675,0.9440270662307739
-1.4130430221557617,-0.03742698207497597,0.9316749572753906
-1.413248896598816,-0.0372823067009449,0.9194192886352539
-1.4134522676467896,-0.03714011237025261,0.9072569012641907
-1.4136546850204468,-0.03700040280818939,0.8951869606971741
-1.4138554334640503,-0.036863118410110474,0.8832069039344788
-1.4140547513961792,-0.036728229373693466,0.8713149428367615
-1.4142520427703857,-0.03659567981958389,0.8595089912414551
-1.4144482612609863,-0.03646546229720116,0.847787618637085
-1.4146435260772705,-0.03633754327893257,0.836149275302887
-1.414837121963501,-0.03621186688542366,0.8245916366577148
-1.4150290489196777,-0.036088403314352036,0.8131130933761597
-1.4152204990386963,-0.0359671488404274,0.8017125129699707
-1.4154094457626343,-0.035848017781972885,0.7903872132301331
-1.4155982732772827,-0.03573104739189148,0.7791368961334229
-1.415785551071167,-0.035616159439086914,0.7679591178894043
-1.4159711599349976,-0.0355033352971077,0.756852388381958
-1.4161564111709595,-0.03539257124066353,0.7458157539367676
-1.4163398742675781,-0.03528380021452904,0.7348470687866211
-1.4165223836898804,-0.035177022218704224,0.7239452004432678
-1.4167039394378662,-0.0350722074508667,0.7131088376045227
-1.4168845415115356,-0.03496933355927467,0.7023364901542664
-1.41706383228302,-0.03486836329102516,0.6916266083717346
-1.417242169380188,-0.03476928174495697,0.6809781193733215
-1.4174195528030396,-0.03467206284403801,0.6703895330429077
-1.417595624923706,-0.03457667678594589,0.6598594188690186
-1.4177712202072144,-0.03448311984539032,0.6493869423866272
-1.4179458618164062,-0.034391362220048904,0.6389706134796143
-1.4181190729141235,-0.03430136293172836,0.6286089420318604
-1.4182915687561035,-0.03421312943100929,0.6183010935783386
-1.4184635877609253,-0.034126631915569305,0.6080458164215088
-1.418634057044983,-0.034041836857795715,0.5978416800498962
-1.4188040494918823,-0.03395874425768852,0.5876879096031189
-1.4189735651016235,-0.033877335488796234,0.5775832533836365
-1.4191418886184692,-0.03379758074879646,0.5675264596939087
-1.419309377670288,-0.033719465136528015,0.5575165152549744
-1.4194759130477905,-0.0336429663002491,0.5475522875785828
-1.4196419715881348,-0.03356808423995972,0.5376328825950623
-1.4198074340820312,-0.03349479287862778,0.5277572274208069
-1.419972538948059,-0.03342308849096298,0.5179243683815002
-1.4201358556747437,-0.033352915197610855,0.5081326961517334
-1.4202994108200073,-0.03328431025147438,0.4983820915222168
-1.4204617738723755,-0.03321721777319908,0.4886709451675415
-1.4206236600875854,-0.03315164893865585,0.4789985716342926
-1.4207850694656372,-0.033087585121393204,0.4693639874458313
-1.420945644378662,-0.03302500396966934,0.459766149520874
-1.4211058616638184,-0.03296390175819397,0.4502042233943939
-1.4212654829025269,-0.03290426731109619,0.44067731499671936
-1.4214240312576294,-0.03284606710076332,0.4311842918395996
-1.4215826988220215,-0.03278931975364685,0.4217245876789093
-1.4217402935028076,-0.0327339842915535,0.4122970402240753
-1.4218977689743042,-0.032680075615644455,0.4029010236263275
-1.4220541715621948,-0.03262755647301674,0.3935353755950928
-1.4222103357315063,-0.032576438039541245,0.3841995298862457
-1.4223662614822388,-0.03252670541405678,0.37489259243011475
-1.4225215911865234,-0.032478343695402145,0.3656136393547058
-1.4226763248443604,-0.03243134170770645,0.35636186599731445
-1.4228307008743286,-0.0323856957256794,0.3471364974975586
-1.4229849576950073,-0.032341402024030685,0.33793678879737854
-1.42313814163208,-0.03229842334985733,0.3287617266178131
-1.4232912063598633,-0.03225678578019142,0.31961074471473694
-1.4234442710876465,-0.03221647068858147,0.31048303842544556
-1.4235963821411133,-0.032177455723285675,0.30137768387794495
-1.4237486124038696,-0.032139748334884644,0.29229408502578735
-1.4239001274108887,-0.03210333734750748,0.28323134779930115
-1.4240514039993286,-0.03206820785999298,0.2741887867450714
-1.4242019653320312,-0.03203435614705086,0.2651655972003937
-1.424353003501892,-0.0320017971098423,0.25616127252578735
-1.4245034456253052,-0.03197050094604492,0.24717479944229126
-1.42465341091156,-0.03194046393036842,0.23820553719997406
-1.4248030185699463,-0.03191167488694191,0.22925274074077606
-1.4249522686004639,-0.03188414126634598,0.22031573951244354
-1.425101637840271,-0.03185785934329033,0.21139386296272278
-1.42525053024292,-0.03183281421661377,0.2024863064289093
-1.4253995418548584,-0.031809013336896896,0.19359245896339417
-1.4255479574203491,-0.03178643435239792,0.1847115159034729
-1.4256963729858398,-0.031765084713697433,0.17584288120269775
-1.4258443117141724,-0.031744956970214844,0.16698576509952545
-1.4259926080703735,-0.03172605484724045,0.15813960134983063
-1.4261404275894165,-0.03170836716890335,0.14930360019207
-1.4262878894805908,-0.03169188275933266,0.14047709107398987
-1.4264357089996338,-0.03167662024497986,0.13165947794914246
-1.4265828132629395,-0.031662553548812866,0.1228499710559845
-1.4267299175262451,-0.03164969012141228,0.11404795944690704
-1.4268772602081299,-0.03163803741335869,0.10525278747081757
-1.4270238876342773,-0.03162756934762001,0.09646372497081757
-1.4271708726882935,-0.031618308275938034,0.08768017590045929
-1.42731773853302,-0.03161023557186127,0.07890142500400543
-1.4274641275405884,-0.03160335496068001,0.07012681663036346
-1.4276113510131836,-0.03159768506884575,0.06135572865605354
-1.4277575016021729,-0.03159318491816521,0.05258742347359657
-1.4279040098190308,-0.03158988058567047,0.0438212975859642
-1.4280511140823364,-0.03158777952194214,0.03505668416619301
-1.4281975030899048,-0.03158685564994812,0.026292899623513222
-1.4283438920974731,-0.03158712387084961,0.01752929762005806
-1.4284906387329102,-0.03158858045935631,0.008765218779444695
-1.4286370277404785,-0.031591225415468216,2.6242769477876813e-16
-1.4287835359573364,-0.03159505873918533,-0.008767016232013702
-1.4289301633834839,-0.03160008415579796,-0.01753649115562439
-1.4290767908096313,-0.03160630166530609,-0.02630908600986004
-1.4292234182357788,-0.03161371499300003,-0.035085465759038925
-1.429370403289795,-0.031622324138879776,-0.04386629909276962
-1.4295169115066528,-0.03163211792707443,-0.052652228623628616
-1.4296637773513794,-0.031643111258745193,-0.061443936079740524
-1.4298112392425537,-0.03165531903505325,-0.07024212181568146
-1.4299583435058594,-0.03166871890425682,-0.07904740422964096
-1.4301055669784546,-0.03168332204222679,-0.08786047250032425
-1.430253028869629,-0.03169913589954376,-0.09668200463056564
-1.4304008483886719,-0.03171616420149803,-0.10551270842552185
-1.4305484294891357,-0.031734395772218704,-0.11435319483280182
-1.4306961297988892,-0.031753845512866974,-0.12320418655872345
-1.4308444261550903,-0.031774524599313736,-0.13206639885902405
-1.4309930801391602,-0.03179643303155899,-0.14094051718711853
-1.4311414957046509,-0.031819555908441544,-0.14982716739177704
-1.4312900304794312,-0.031843915581703186,-0.15872707962989807
-1.4314392805099487,-0.03186952322721481,-0.16764101386070251
-1.4315881729125977,-0.03189636021852493,-0.17656956613063812
-1.4317378997802734,-0.03192445635795593,-0.18551357090473175
-1.4318877458572388,-0.031953804194927216,-0.19447366893291473
-1.432037591934204,-0.03198440372943878,-0.203450545668602
-1.4321876764297485,-0.032016266137361526,-0.2124449759721756
-1.4323385953903198,-0.03204941377043724,-0.22145776450634003
-1.4324891567230225,-0.03208382427692413,-0.23048946261405945
-1.4326403141021729,-0.032119523733854294,-0.2395409494638443
-1.432792067527771,-0.03215652331709862,-0.24861299991607666
-1.4329437017440796,-0.03219481185078621,-0.25770625472068787
-1.433096170425415,-0.03223441168665886,-0.26682159304618835
-1.4332492351531982,-0.03227533772587776,-0.2759597599506378
-1.4334020614624023,-0.032317567616701126,-0.2851214110851288
-1.4335556030273438,-0.03236113488674164,-0.2943074405193329
-1.4337093830108643,-0.032406035810709,-0.3035185933113098
-1.3907018899917603,-0.0893021672964096,2.5267386436462402
-1.3912153244018555,-0.08835183829069138,2.4913601875305176
-1.3917384147644043,-0.0874260663986206,2.4567618370056152
-1.3921802043914795,-0.08651833981275558,2.422757148742676
-1.3926562070846558,-0.08563511073589325,2.389524221420288
-1.393157720565796,-0.08477503806352615,2.3570210933685303
-1.3935860395431519,-0.08393139392137527,2.3250579833984375
-1.3940160274505615,-0.08310806006193161,2.2937397956848145
-1.3944586515426636,-0.08230504393577576,2.2630631923675537
-1.3948450088500977,-0.08151763677597046,2.232896089553833
-1.3952624797821045,-0.08075038343667984,2.203360080718994
-1.3956208229064941,-0.0799974873661995,2.1742942333221436
-1.3960376977920532,-0.07926515489816666,2.1458640098571777
-1.3964345455169678,-0.07854832708835602,2.117929697036743
-1.3967636823654175,-0.07784388959407806,2.090404748916626
-1.397156834602356,-0.07715870440006256,2.0634708404541016
-1.3974705934524536,-0.07648435980081558,2.036900281906128
-1.397821068763733,-0.07582681626081467,2.010849952697754
-1.39814031124115,-0.07518193125724792,1.9852067232131958
-1.3985060453414917,-0.0745534673333168,1.9600677490234375
-1.398803949356079,-0.07393492013216019,1.935259222984314
-1.3991464376449585,-0.07333188503980637,1.9109256267547607
-1.3994404077529907,-0.07273908704519272,1.8869268894195557
-1.3997232913970947,-0.07215816527605057,1.8633036613464355
-1.4000301361083984,-0.07159058004617691,1.840091347694397
-1.4003076553344727,-0.07103326171636581,1.8172086477279663
-1.4006011486053467,-0.07048819214105606,1.7947044372558594
-1.4008630514144897,-0.06995269656181335,1.772507905960083
-1.40113365650177,-0.06942848861217499,1.750661015510559
-1.401368498802185,-0.06891310214996338,1.7290993928909302
-1.4016319513320923,-0.06840942800045013,1.7078934907913208
-1.4018768072128296,-0.06791488826274872,1.6869769096374512
-1.402138113975525,-0.06743092089891434,1.6663832664489746
-1.4023644924163818,-0.06695481389760971,1.6460438966751099
-1.402563452720642,-0.06648672372102737,1.6259608268737793
-1.4028123617172241,-0.06603008508682251,1.6062160730361938
-1.4030054807662964,-0.06557966768741608,1.5866808891296387
-1.4032257795333862,-0.06513918191194534,1.5674428939819336
-1.4034417867660522,-0.06470693647861481,1.5484594106674194
-1.4036227464675903,-0.06428130716085434,1.5296903848648071
-1.403825283050537,-0.06386472284793854,1.511191725730896
-1.4040039777755737,-0.06345491111278534,1.492908000946045
-1.4041975736618042,-0.06305346637964249,1.4748748540878296
-1.4043772220611572,-0.06265889108181,1.457055687904358
-1.404547929763794,-0.06227125599980354,1.439450740814209
-1.4047492742538452,-0.061892155557870865,1.4220948219299316
-1.4049913883209229,-0.061521824449300766,1.4049913883209229
-1.4052741527557373,-0.06116008758544922,1.3881338834762573
-1.4055535793304443,-0.06080485135316849,1.3714725971221924
-1.4058291912078857,-0.06045595929026604,1.355002760887146
-1.4061018228530884,-0.060113295912742615,1.3387202024459839
-1.406371831893921,-0.05977676063776016,1.3226211071014404
-1.406638741493225,-0.059446193277835846,1.306700587272644
-1.4069026708602905,-0.059121470898389816,1.2909544706344604
-1.4071639776229858,-0.058802489191293716,1.2753791809082031
-1.4074219465255737,-0.05848909541964531,1.2599698305130005
-1.4076776504516602,-0.05818122625350952,1.2447237968444824
-1.4079298973083496,-0.05787871778011322,1.2296361923217773
-1.4081804752349854,-0.05758152902126312,1.2147048711776733
-1.4084283113479614,-0.05728951469063759,1.1999253034591675
-1.4086734056472778,-0.05700257420539856,1.185294270515442
-1.4089161157608032,-0.05672062188386917,1.1708084344863892
-1.4091564416885376,-0.056443557143211365,1.1564648151397705
-1.4093942642211914,-0.05617129057645798,1.142259955406189
-1.4096301794052124,-0.05590374022722244,1.1281911134719849
-1.4098637104034424,-0.0556408055126667,1.1142550706863403
-1.4100947380065918,-0.05538239702582359,1.100448727607727
-1.410323977470398,-0.05512845143675804,1.0867698192596436
-1.4105510711669922,-0.05487888678908348,1.0732152462005615
-1.4107767343521118,-0.05463363975286484,1.05978262424469
-1.4109997749328613,-0.05439258739352226,1.046468734741211
-1.4112205505371094,-0.05415567383170128,1.033271074295044
-1.4114398956298828,-0.053922854363918304,1.0201877355575562
-1.4116569757461548,-0.05369402468204498,1.0072156190872192
-1.4118725061416626,-0.05346914380788803,0.9943528175354004
-1.4120862483978271,-0.05324813351035118,0.981596827507019
-1.4122984409332275,-0.053030941635370255,0.9689455628395081
-1.4125087261199951,-0.052817486226558685,0.9563964605331421
-1.4127171039581299,-0.0526077076792717,0.9439473748207092
-1.4129239320755005,-0.05240155756473541,0.9315963983535767
-1.413129448890686,-0.05219898372888565,0.9193415641784668
-1.4133329391479492,-0.051999904215335846,0.9071803689002991
-1.4135353565216064,-0.05180429667234421,0.8951113820075989
-1.4137362241744995,-0.051612090319395065,0.8831323981285095
-1.4139354228973389,-0.05142322555184364,0.8712414503097534
-1.4141325950622559,-0.051237646490335464,0.8594363927841187
-1.414328932762146,-0.05105532705783844,0.8477160930633545
-1.414523959159851,-0.05087621882557869,0.8360786437988281
-1.414717674255371,-0.050700265914201736,0.824522078037262
-1.4149097204208374,-0.050527408719062805,0.8130444884300232
-1.4151010513305664,-0.050357636064291,0.8016448616981506
-1.4152899980545044,-0.050190843641757965,0.7903204560279846
-1.4154787063598633,-0.050027068704366684,0.7790710926055908
-1.4156662225723267,-0.04986622557044029,0.7678943872451782
-1.4158519506454468,-0.04970826208591461,0.7567886114120483
-1.4160369634628296,-0.049553170800209045,0.7457528114318848
-1.4162203073501587,-0.04940088093280792,0.7347850203514099
-1.4164029359817505,-0.049251385033130646,0.7238841652870178
-1.4165843725204468,-0.04910463094711304,0.7130486369132996
-1.4167649745941162,-0.048960596323013306,0.7022772431373596
-1.416944146156311,-0.048819225281476974,0.6915681958198547
-1.417122483253479,-0.04868049919605255,0.6809206008911133
-1.4173001050949097,-0.048544395714998245,0.6703330278396606
-1.4174760580062866,-0.04841084033250809,0.6598038077354431
-1.4176515340805054,-0.04827985167503357,0.6493321657180786
-1.4178259372711182,-0.048151370137929916,0.6389166116714478
-1.4179993867874146,-0.04802536964416504,0.6285558938980103
-1.4181722402572632,-0.04790184274315834,0.6182490587234497
-1.4183439016342163,-0.047780729830265045,0.607994556427002
-1.4185144901275635,-0.04766201227903366,0.597791314125061
-1.4186842441558838,-0.0475456677377224,0.587638258934021
-1.4188538789749146,-0.047431692481040955,0.577534556388855
-1.4190223217010498,-0.04732003062963486,0.5674786567687988
-1.419189453125,-0.04721064865589142,0.5574694275856018
-1.419356107711792,-0.04710355028510094,0.5475060939788818
-1.4195225238800049,-0.04699871689081192,0.5375876426696777
-1.4196876287460327,-0.04689608886837959,0.5277126431465149
-1.4198527336120605,-0.04679569602012634,0.5178806781768799
-1.4200160503387451,-0.04669744893908501,0.5080898404121399
-1.4201796054840088,-0.046601392328739166,0.49834007024765015
-1.4203420877456665,-0.04650746285915375,0.4886297583580017
-1.4205037355422974,-0.04641565680503845,0.4789581596851349
-1.4206650257110596,-0.04632595553994179,0.4693243205547333
-1.4208259582519531,-0.04623834416270256,0.45972740650177
-1.4209860563278198,-0.04615279659628868,0.4501662850379944
-1.4211456775665283,-0.04606929421424866,0.4406401515007019
-1.4213041067123413,-0.0459878072142601,0.43114787340164185
-1.4214626550674438,-0.045908354222774506,0.4216890037059784
-1.4216203689575195,-0.04583088308572769,0.4122622609138489
-1.4217778444290161,-0.04575540870428085,0.40286704897880554
-1.4219342470169067,-0.045681875199079514,0.39350220561027527
-1.4220904111862183,-0.04561030492186546,0.3841671347618103
-1.4222462177276611,-0.04554067179560661,0.374860942363739
-1.4224015474319458,-0.04547296091914177,0.36558279395103455
-1.4225564002990723,-0.04540715739130974,0.35633182525634766
-1.4227107763290405,-0.045343246310949326,0.3471072316169739
-1.4228649139404297,-0.04528122767806053,0.3379082977771759
-1.423017978668213,-0.045221053063869476,0.32873398065567017
-1.423171043395996,-0.04516275227069855,0.3195837438106537
-1.4233242273330688,-0.04510631412267685,0.31045687198638916
-1.4234763383865356,-0.045051686465740204,0.30135226249694824
-1.423628330230713,-0.0449988879263401,0.29226937890052795
-1.4237799644470215,-0.04494791105389595,0.2832074463367462
-1.423931360244751,-0.04489873722195625,0.27416568994522095
-1.4240819215774536,-0.04485134035348892,0.2651432752609253
-1.4242329597473145,-0.044805750250816345,0.2561396658420563
-1.4243834018707275,-0.044761933386325836,0.24715396761894226
-1.4245331287384033,-0.044719867408275604,0.23818542063236237
-1.4246827363967896,-0.04467956721782684,0.22923339903354645
-1.4248321056365967,-0.04464101791381836,0.22029715776443481
-1.4249815940856934,-0.04460422694683075,0.21137605607509613
-1.4251302480697632,-0.04456915333867073,0.20246921479701996
-1.4252793788909912,-0.04453583061695099,0.1935761421918869
-1.4254276752471924,-0.04450421407818794,0.18469592928886414
-1.425576090812683,-0.04447432607412338,0.17582803964614868
-1.4257242679595947,-0.044446151703596115,0.16697171330451965
-1.4258724451065063,-0.04441968724131584,0.15812626481056213
-1.4260199069976807,-0.04439490661025047,0.14929097890853882
-1.4261674880981445,-0.0443718358874321,0.14046524465084076
-1.4263153076171875,-0.04435046762228012,0.13164836168289185
-1.4264625310897827,-0.044330768287181854,0.12283960729837418
-1.4266093969345093,-0.04431275650858879,0.11403831839561462
-1.426756739616394,-0.04429643973708153,0.10524390637874603
-1.4269036054611206,-0.044281791895627975,0.09645559638738632
-1.4270505905151367,-0.04426882416009903,0.08767278492450714
-1.4271973371505737,-0.044257525354623795,0.07889477908611298
-1.427343726158142,-0.04424789175391197,0.0701209008693695
-1.4274907112121582,-0.044239941984415054,0.061350543051958084
-1.4276371002197266,-0.04423364996910095,0.0525829903781414
-1.4277836084365845,-0.04422902315855026,0.04381759837269783
-1.427930474281311,-0.04422608017921448,0.03505372628569603
-1.428076982498169,-0.04422478750348091,0.026290681213140488
-1.4282234907150269,-0.04422516003251076,0.01752781867980957
-1.4283699989318848,-0.044227201491594315,0.008764478377997875
-1.4285163879394531,-0.04423090070486069,2.624055395732415e-16
-1.4286631345748901,-0.04423627629876137,-0.008766276761889458
-1.4288095235824585,-0.044243309646844864,-0.01753501035273075
-1.428956151008606,-0.04425201565027237,-0.026306867599487305
-1.4291027784347534,-0.044262390583753586,-0.03508250415325165
-1.4292500019073486,-0.04427444934844971,-0.04386260360479355
-1.429396629333496,-0.044288165867328644,-0.05264779552817345
-1.429543137550354,-0.04430355131626129,-0.061438754200935364
-1.4296904802322388,-0.044320639222860336,-0.0702361911535263
-1.429837703704834,-0.04433940351009369,-0.07904072850942612
-1.4299850463867188,-0.044359851628541946,-0.08785305917263031
-1.430132269859314,-0.04438198730349541,-0.09667384624481201
-1.430280327796936,-0.04440583661198616,-0.10550381243228912
-1.4304276704788208,-0.04443135857582092,-0.1143435463309288
-1.4305756092071533,-0.044458597898483276,-0.12319380789995193
-1.430723786354065,-0.044487547129392624,-0.13205526769161224
-1.4308720827102661,-0.044518206268548965,-0.14092861115932465
-1.4310208559036255,-0.04455059766769409,-0.14981453120708466
-1.4311693906784058,-0.04458469897508621,-0.158713698387146
-1.4313184022903442,-0.04462054371833801,-0.16762685775756836
-1.4314674139022827,-0.0446581207215786,-0.17655466496944427
-1.4316171407699585,-0.044697459787130356,-0.18549790978431702
-1.4317668676376343,-0.04473854601383209,-0.1944572478532791
-1.4319167137145996,-0.0447813905775547,-0.20343337953090668
-1.4320666790008545,-0.044826000928878784,-0.2124270349740982
-1.4322178363800049,-0.04487242177128792,-0.22143909335136414
-1.4323683977127075,-0.04492059722542763,-0.23047003149986267
-1.432519555091858,-0.04497057944536209,-0.23952075839042664
-1.4326711893081665,-0.045022379606962204,-0.24859201908111572
-1.4328229427337646,-0.04507598653435707,-0.25768452882766724
-1.4329752922058105,-0.04513143375515938,-0.26679909229278564
-1.4331283569335938,-0.04518872871994972,-0.275936484336853
-1.4332813024520874,-0.04524786025285721,-0.2850973904132843
-1.4334349632263184,-0.04530886188149452,-0.2942826747894287
-1.4335886240005493,-0.045371729880571365,-0.30349302291870117
-1.3905277252197266,-0.11482665687799454,2.5264220237731934
-1.391039252281189,-0.11360454559326172,2.4910449981689453
-1.3915623426437378,-0.11241418123245239,2.456451177597046
-1.392004370689392,-0.11124702543020248,2.4224510192871094
-1.3924802541732788,-0.11011135578155518,2.3892221450805664
-1.3929816484451294,-0.10900544375181198,2.3567233085632324
-1.393410086631775,-0.10792068392038345,2.3247642517089844
-1.3938403129577637,-0.10686205327510834,2.2934508323669434
-1.3942835330963135,-0.10582955926656723,2.2627789974212646
-1.3946698904037476,-0.10481709986925125,2.2326157093048096
-1.395087718963623,-0.10383059084415436,2.2030842304229736
-1.3954461812973022,-0.10286249965429306,2.1740219593048096
-1.3958630561828613,-0.10192085057497025,2.1455955505371094
-1.3962600231170654,-0.10099916905164719,2.1176652908325195
-1.396588921546936,-0.10009336471557617,2.0901432037353516
-1.396981954574585,-0.09921232610940933,2.0632123947143555
-1.3972957134246826,-0.09834524244070053,2.0366454124450684
-1.3976460695266724,-0.09749976545572281,2.0105981826782227
-1.3979651927947998,-0.09667054563760757,1.9849580526351929
-1.398330569267273,-0.09586243331432343,1.9598218202590942
-1.3986282348632812,-0.0950670838356018,1.93501615524292
-1.3989707231521606,-0.09429168701171875,1.910685658454895
-1.3992646932601929,-0.09352946281433105,1.8866900205612183
-1.3995475769042969,-0.09278249740600586,1.863069772720337
-1.3998544216156006,-0.09205268323421478,1.839860439300537
-1.4001319408416748,-0.09133607149124146,1.8169806003570557
-1.4004251956939697,-0.09063521027565002,1.7944790124893188
-1.4006870985031128,-0.08994665741920471,1.7722853422164917
-1.400957703590393,-0.0892726257443428,1.750441312789917
-1.4011926651000977,-0.08860993385314941,1.7288823127746582
-1.4014559984207153,-0.08796229213476181,1.7076791524887085
-1.4017009735107422,-0.08732640743255615,1.686765193939209
-1.401962161064148,-0.08670411258935928,1.666174292564392
-1.402188777923584,-0.08609194308519363,1.645837664604187
-1.4023879766464233,-0.08549007773399353,1.6257574558258057
-1.4026368856430054,-0.08490291982889175,1.6060153245925903
-1.402829885482788,-0.08432377129793167,1.5864824056625366
-1.4030505418777466,-0.08375740051269531,1.5672472715377808
-1.4032666683197021,-0.08320160210132599,1.5482661724090576
-1.4034473896026611,-0.08265431225299835,1.5294991731643677
-1.4036496877670288,-0.08211865276098251,1.511002779006958
-1.403828501701355,-0.08159171789884567,1.492721438407898
-1.404022216796875,-0.08107553422451019,1.4746906757354736
-1.404201865196228,-0.08056818693876266,1.456873893737793
-1.4043725728988647,-0.08006975799798965,1.439271092414856
-1.4045404195785522,-0.0795803964138031,1.4218833446502686
-1.4048155546188354,-0.07910609990358353,1.4048155546188354
-1.405098557472229,-0.07864097505807877,1.3879603147506714
-1.4053778648376465,-0.07818420976400375,1.3713011741638184
-1.4056532382965088,-0.07773558050394058,1.3548331260681152
-1.405925989151001,-0.07729499042034149,1.3385528326034546
-1.4061962366104126,-0.07686227560043335,1.322455883026123
-1.4064631462097168,-0.07643722742795944,1.306537389755249
-1.4067267179489136,-0.07601967453956604,1.2907930612564087
-1.4069881439208984,-0.07560952752828598,1.2752197980880737
-1.4072459936141968,-0.07520655542612076,1.2598122358322144
-1.407501459121704,-0.0748106837272644,1.2445679903030396
-1.4077541828155518,-0.07442173361778259,1.229482650756836
-1.4080045223236084,-0.07403959333896637,1.2145529985427856
-1.4082520008087158,-0.0736641064286232,1.199775218963623
-1.4084973335266113,-0.07329516112804413,1.1851460933685303
-1.4087398052215576,-0.07293260842561722,1.1706620454788208
-1.408980131149292,-0.0725763589143753,1.1563200950622559
-1.4092180728912354,-0.07222626358270645,1.1421170234680176
-1.4094538688659668,-0.07188224792480469,1.1280500888824463
-1.4096876382827759,-0.07154417037963867,1.114115834236145
-1.4099185466766357,-0.07121189683675766,1.1003111600875854
-1.4101475477218628,-0.07088536769151688,1.0866338014602661
-1.4103748798370361,-0.07056447863578796,1.073081135749817
-1.410600185394287,-0.07024911791086197,1.0596500635147095
-1.4108233451843262,-0.06993917375802994,1.0463378429412842
-1.4110442399978638,-0.06963455677032471,1.0331419706344604
-1.4112635850906372,-0.06933519244194031,1.0200603008270264
-1.4114805459976196,-0.06904095411300659,1.0070897340774536
-1.4116960763931274,-0.06875178962945938,0.9942285418510437
-1.411909580230713,-0.06846760958433151,0.9814740419387817
-1.4121217727661133,-0.06818833947181702,0.9688243865966797
-1.41233229637146,-0.06791388243436813,0.9562770128250122
-1.4125405550003052,-0.0676441416144371,0.9438294172286987
-1.4127472639083862,-0.06737906485795975,0.9314798712730408
-1.4129528999328613,-0.06711860001087189,0.9192267060279846
-1.4131561517715454,-0.06686260551214218,0.907066822052002
-1.413358449935913,-0.06661108881235123,0.8949993848800659
-1.4135593175888062,-0.06636394560337067,0.8830219507217407
-1.4137585163116455,-0.06612110137939453,0.8711324334144592
-1.4139559268951416,-0.06588248908519745,0.8593289852142334
-1.4141521453857422,-0.06564805656671524,0.8476101756095886
-1.4143471717834473,-0.06541775166988373,0.8359740972518921
-1.4145407676696777,-0.06519150733947754,0.8244189023971558
-1.414732813835144,-0.06496924161911011,0.8129428625106812
-1.414924144744873,-0.06475094705820084,0.8015446662902832
-1.4151132106781006,-0.06453648954629898,0.7902218103408813
-1.415302038192749,-0.06432590633630753,0.7789738178253174
-1.4154891967773438,-0.06411908566951752,0.7677984237670898
-1.4156749248504639,-0.06391596794128418,0.7566940188407898
-1.4158599376678467,-0.06371655315160751,0.745659589767456
-1.4160434007644653,-0.06352073699235916,0.7346932291984558
-1.4162259101867676,-0.06332851201295853,0.7237936854362488
-1.4164073467254639,-0.06313981115818024,0.7129595279693604
-1.4165877103805542,-0.06295459717512131,0.7021893262863159
-1.4167671203613281,-0.06277283281087875,0.6914818286895752
-1.416945219039917,-0.0625944510102272,0.6808354258537292
-1.4171229600906372,-0.06241944804787636,0.6702492833137512
-1.4172990322113037,-0.06224772706627846,0.6597213745117188
-1.4174742698669434,-0.062079284340143204,0.6492509245872498
-1.4176489114761353,-0.06191409379243851,0.6388368010520935
-1.4178221225738525,-0.0617520734667778,0.6284772753715515
-1.4179949760437012,-0.06159323826432228,0.618171751499176
-1.4181663990020752,-0.06143749877810478,0.6079184412956238
-1.418337106704712,-0.061284855008125305,0.5977165699005127
-1.4185068607330322,-0.06113525480031967,0.5875647664070129
-1.4186766147613525,-0.060988716781139374,0.5774624347686768
-1.4188449382781982,-0.06084512919187546,0.5674077272415161
-1.4190123081207275,-0.060704492032527924,0.5573998093605042
-1.4191789627075195,-0.06056678295135498,0.5474377274513245
-1.4193450212478638,-0.06043197214603424,0.5375204086303711
-1.4195102453231812,-0.06030002608895302,0.5276467800140381
