-1.40681791305542,-0.3271001875400543,1.243963599205017
-1.407070279121399,-0.3253995180130005,1.2288854122161865
-1.407320499420166,-0.32372862100601196,1.2139630317687988
-1.4075677394866943,-0.32208681106567383,1.1991921663284302
-1.4078128337860107,-0.32047364115715027,1.1845701932907104
-1.408055305480957,-0.31888845562934875,1.1700931787490845
-1.4082952737808228,-0.3173307180404663,1.155758023262024
-1.4085332155227661,-0.3158000409603119,1.1415619850158691
-1.408768653869629,-0.31429579854011536,1.1275016069412231
-1.4090020656585693,-0.3128175735473633,1.1135740280151367
-1.4092330932617188,-0.3113647997379303,1.099776268005371
-1.4094618558883667,-0.309937059879303,1.086105465888977
-1.409688949584961,-0.3085339665412903,1.0725592374801636
-1.4099143743515015,-0.30715513229370117,1.059134840965271
-1.4101372957229614,-0.3057999312877655,1.0458290576934814
-1.41035795211792,-0.3044680058956146,1.032639503479004
-1.4105772972106934,-0.30315908789634705,1.019564151763916
-1.4107942581176758,-0.301872581243515,1.006600022315979
-1.411009669303894,-0.3006083071231842,0.9937451481819153
-1.4112229347229004,-0.29936569929122925,0.9809967279434204
-1.4114348888397217,-0.2981446087360382,0.9683531522750854
-1.4116454124450684,-0.29694458842277527,0.9558119177818298
-1.411853313446045,-0.29576513171195984,0.9433702230453491
-1.4120599031448364,-0.29460611939430237,0.9310266971588135
-1.4122653007507324,-0.293467253446579,0.9187793731689453
-1.4124689102172852,-0.29234805703163147,0.9066257476806641
-1.4126709699630737,-0.29124826192855835,0.8945639729499817
-1.4128717184066772,-0.2901676595211029,0.8825923800468445
-1.413070559501648,-0.2891058325767517,0.8707085847854614
-1.4132678508758545,-0.28806251287460327,0.858910858631134
-1.413463830947876,-0.2870374619960785,0.8471976518630981
-1.4136590957641602,-0.2860305607318878,0.8355673551559448
-1.4138526916503906,-0.28504133224487305,0.8240178823471069
-1.4140446186065674,-0.2840695083141327,0.8125473260879517
-1.4142358303070068,-0.283115029335022,0.8011547327041626
-1.4144246578216553,-0.28217729926109314,0.7898372411727905
-1.4146132469177246,-0.2812565565109253,0.7785946726799011
-1.4148004055023193,-0.28035223484039307,0.7674247026443481
-1.4149858951568604,-0.27946412563323975,0.7563257217407227
-1.4151710271835327,-0.2785922586917877,0.745296835899353
-1.4153543710708618,-0.2777360677719116,0.734335720539093
-1.415536880493164,-0.2768956124782562,0.7234415411949158
-1.4157180786132812,-0.2760705351829529,0.7126126289367676
-1.4158985614776611,-0.2752607464790344,0.7018477916717529
-1.4160778522491455,-0.274465948343277,0.6911454200744629
-1.4162561893463135,-0.27368608117103577,0.680504322052002
-1.416433572769165,-0.2729208469390869,0.6699231863021851
-1.416609525680542,-0.2721700370311737,0.659400463104248
-1.4167850017547607,-0.27143359184265137,0.6489351987838745
-1.4169591665267944,-0.2707112431526184,0.6385259628295898
-1.4171324968338013,-0.2700028717517853,0.6281716227531433
-1.4173051118850708,-0.2693083584308624,0.6178710460662842
-1.4174766540527344,-0.26862746477127075,0.6076228022575378
-1.417647361755371,-0.2679600417613983,0.5974258780479431
-1.4178168773651123,-0.2673059105873108,0.5872789621353149
-1.4179861545562744,-0.26666510105133057,0.5771813988685608
-1.4181548357009888,-0.2660374045372009,0.567131757736206
-1.4183218479156494,-0.26542243361473083,0.5571286082267761
-1.4184883832931519,-0.26482030749320984,0.5471713542938232
-1.4186546802520752,-0.2642309069633484,0.5372589826583862
-1.418819785118103,-0.263653963804245,0.5273900628089905
-1.4189847707748413,-0.26308953762054443,0.517564058303833
-1.4191480875015259,-0.2625371813774109,0.5077793002128601
-1.4193114042282104,-0.26199713349342346,0.4980354309082031
-1.4194740056991577,-0.26146912574768066,0.488331139087677
-1.4196358919143677,-0.26095300912857056,0.4786655306816101
-1.4197969436645508,-0.2604486644268036,0.46903756260871887
-1.4199576377868652,-0.25995612144470215,0.4594464600086212
-1.420117735862732,-0.2594751715660095,0.44989120960235596
-1.4202771186828613,-0.25900569558143616,0.4403708577156067
-1.4204360246658325,-0.2585476338863373,0.43088454008102417
-1.420594334602356,-0.2581009268760681,0.42143139243125916
-1.420751690864563,-0.25766536593437195,0.4120103716850281
-1.4209094047546387,-0.25724104046821594,0.40262094140052795
-1.4210659265518188,-0.2568276822566986,0.3932618796825409
-1.4212218523025513,-0.25642529129981995,0.383932501077652
-1.4213777780532837,-0.25603386759757996,0.3746320605278015
-1.4215331077575684,-0.2556532025337219,0.3653596043586731
-1.4216877222061157,-0.2552832067012787,0.3561142385005951
-1.4218422174453735,-0.254923939704895,0.34689533710479736
-1.4219962358474731,-0.254575252532959,0.3377019762992859
-1.4221493005752563,-0.25423699617385864,0.3285332918167114
-1.4223023653030396,-0.25390923023223877,0.3193886876106262
-1.4224555492401123,-0.253591924905777,0.3102673888206482
-1.422607660293579,-0.2532848119735718,0.3011683523654938
-1.4227596521377563,-0.2529880106449127,0.29209104180336
-1.422911286354065,-0.25270140171051025,0.28303465247154236
-1.4230626821517944,-0.252424955368042,0.2739984393119812
-1.423213243484497,-0.252158522605896,0.26498153805732727
-1.423364281654358,-0.2519022524356842,0.2559834420681
-1.42351496219635,-0.2516559362411499,0.24700327217578888
-1.4236646890640259,-0.25141945481300354,0.23804020881652832
-1.4238141775131226,-0.2511928975582123,0.22909364104270935
-1.4239636659622192,-0.25097620487213135,0.22016288340091705
-1.4241130352020264,-0.25076934695243835,0.21124720573425293
-1.4242618083953857,-0.25057220458984375,0.2023458480834961
-1.4244108200073242,-0.2503848373889923,0.1934581696987152
-1.424559235572815,-0.25020715594291687,0.1845834106206894
-1.4247076511383057,-0.25003913044929504,0.1757209151983261
-1.4248560667037964,-0.24988077580928802,0.16687002778053284
-1.4250037670135498,-0.24973192811012268,0.1580299437046051
-1.4251517057418823,-0.24959270656108856,0.14920008182525635
-1.4252992868423462,-0.24946299195289612,0.14037972688674927
-1.4254471063613892,-0.2493428736925125,0.13156822323799133
-1.425594449043274,-0.2492322027683258,0.12276485562324524
-1.425741195678711,-0.24913090467453003,0.11396892368793488
-1.4258886575698853,-0.2490392029285431,0.10517986118793488
-1.4260355234146118,-0.24895687401294708,0.09639691561460495
-1.4261823892593384,-0.24888396263122559,0.08761944621801376
-1.4263293743133545,-0.24882051348686218,0.07884679734706879
-1.4264757633209229,-0.24876633286476135,0.07007826119661331
-1.426622748374939,-0.24872168898582458,0.061313241720199585
-1.4267690181732178,-0.2486862987279892,0.052551016211509705
-1.4269155263900757,-0.24866031110286713,0.04379096254706383
-1.4270625114440918,-0.24864378571510315,0.03503241762518883
-1.4272090196609497,-0.24863654375076294,0.026274703443050385
-1.4273555278778076,-0.24863864481449127,0.01751716621220112
-1.4275023937225342,-0.2486501932144165,0.008759154938161373
-1.427648901939392,-0.2486710399389267,2.622461915000393e-16
-1.4277955293655396,-0.24870124459266663,-0.008760953322052956
-1.427941918373108,-0.2487408071756363,-0.017524363473057747
-1.428088665008545,-0.24878978729248047,-0.0262908972799778
-1.4282352924346924,-0.24884812533855438,-0.03506121039390564
-1.4283825159072876,-0.24891595542430878,-0.04383598268032074
-1.4285293817520142,-0.24899311363697052,-0.052615851163864136
-1.4286763668060303,-0.24907973408699036,-0.06140150502324104
-1.4288232326507568,-0.24917572736740112,-0.0701935887336731
-1.4289705753326416,-0.24928125739097595,-0.0789927989244461
-1.4291179180145264,-0.24939624965190887,-0.0877997949719429
-1.4292652606964111,-0.24952071905136108,-0.09661523997783661
-1.4294131994247437,-0.24965478479862213,-0.10543984919786453
-1.429560661315918,-0.24979831278324127,-0.11427423357963562
-1.4297086000442505,-0.24995146691799164,-0.12311914563179016
-1.429856777191162,-0.25011423230171204,-0.1319752335548401
-1.430005431175232,-0.25028669834136963,-0.1408432424068451
-1.4301539659500122,-0.25046879053115845,-0.14972378313541412
-1.4303028583526611,-0.25066056847572327,-0.15861760079860687
-1.4304519891738892,-0.25086215138435364,-0.16752539575099945
-1.4306007623672485,-0.2510733902454376,-0.1764477789402008
-1.4307506084442139,-0.2512945830821991,-0.18538564443588257
-1.4309006929397583,-0.2515256404876709,-0.1943396031856537
-1.4310505390167236,-0.25176653265953064,-0.2033103108406067
-1.4312005043029785,-0.25201737880706787,-0.21229854226112366
-1.4313517808914185,-0.2522783577442169,-0.22130519151687622
-1.431502342224121,-0.25254926085472107,-0.2303306758403778
-1.4316537380218506,-0.2528303265571594,-0.2393760085105896
-1.4318054914474487,-0.25312158465385437,-0.24844181537628174
-1.4319572448730469,-0.2534230053424835,-0.2575288414955139
-1.4321095943450928,-0.2537347376346588,-0.2666378915309906
-1.432262659072876,-0.2540568709373474,-0.27576979994773865
-1.4324157238006592,-0.25438934564590454,-0.2849251925945282
-1.4325693845748901,-0.2547323405742645,-0.2941049635410309
-1.432723045349121,-0.2550857961177826,-0.3033097982406616
-2.541367769241333,-0.45306888222694397,-0.5543255805969238
-1.3920060396194458,-0.4963337779045105,2.3224217891693115
-1.392438292503357,-0.4914659559726715,2.2911438941955566
-1.3928848505020142,-0.4867187738418579,2.2605090141296387
-1.393275499343872,-0.48206400871276855,2.2303836345672607
-1.3936959505081177,-0.4775279760360718,2.2008864879608154
-1.394055962562561,-0.47307631373405457,2.171856164932251
-1.3944743871688843,-0.46874621510505676,2.143461227416992
-1.394872784614563,-0.4645078480243683,2.115561008453369
-1.3952035903930664,-0.4603427052497864,2.0880699157714844
-1.395599365234375,-0.45629173517227173,2.0611705780029297
-1.3959157466888428,-0.45230481028556824,2.0346338748931885
-1.3962688446044922,-0.4484173059463501,2.0086169242858887
-1.3965909481048584,-0.44460466504096985,1.9830068349838257
-1.3969582319259644,-0.44088873267173767,1.957898497581482
-1.3972567319869995,-0.4372311234474182,1.9331187009811401
-1.3975999355316162,-0.43366527557373047,1.9088135957717896
-1.3978946208953857,-0.43015995621681213,1.8848427534103394
-1.3981781005859375,-0.42672479152679443,1.8612468242645264
-1.398485779762268,-0.42336857318878174,1.8380615711212158
-1.3987637758255005,-0.4200729429721832,1.8152050971984863
-1.3990575075149536,-0.4168497622013092,1.7927263975143433
-1.399318814277649,-0.41368287801742554,1.7705540657043457
-1.3995881080627441,-0.4105825424194336,1.748729944229126
-1.3998208045959473,-0.40753409266471863,1.727189540863037
-1.4000813961029053,-0.4045547842979431,1.7060041427612305
-1.400323748588562,-0.4016295373439789,1.685107946395874
-1.4005825519561768,-0.3987669050693512,1.6645346879959106
-1.4008069038391113,-0.3959508538246155,1.644215703010559
-1.401004672050476,-0.3931824266910553,1.6241538524627686
-1.401252031326294,-0.3904816210269928,1.6044296026229858
-1.4014438390731812,-0.38781771063804626,1.5849148035049438
-1.4016624689102173,-0.38521242141723633,1.5656967163085938
-1.4018760919570923,-0.38265565037727356,1.546731948852539
-1.4020544290542603,-0.38013797998428345,1.527981162071228
-1.4022548198699951,-0.3776738941669464,1.5095010995864868
-1.4024311304092407,-0.37524986267089844,1.4912354946136475
-1.4026226997375488,-0.3728753328323364,1.4732205867767334
-1.4028003215789795,-0.370541512966156,1.4554197788238525
-1.4029690027236938,-0.36824873089790344,1.4378327131271362
-1.4031682014465332,-0.3660063147544861,1.4204941987991333
-1.4034119844436646,-0.36381685733795166,1.4034119844436646
-1.4036941528320312,-0.3616775870323181,1.386573076248169
-1.4039735794067383,-0.359576940536499,1.3699309825897217
-1.4042483568191528,-0.35751357674598694,1.353479027748108
-1.4045207500457764,-0.35548722743988037,1.3372148275375366
-1.4047901630401611,-0.3534970283508301,1.3211336135864258
-1.4050567150115967,-0.3515421450138092,1.305230975151062
-1.405320167541504,-0.34962183237075806,1.2895023822784424
-1.4055812358856201,-0.3477354943752289,1.273944616317749
-1.4058388471603394,-0.34588220715522766,1.2585525512695312
-1.4060940742492676,-0.3440615236759186,1.243323564529419
-1.4063464403152466,-0.34227266907691956,1.2282531261444092
-1.4065961837768555,-0.3405151069164276,1.2133382558822632
-1.406843662261963,-0.338788241147995,1.1985752582550049
-1.407088279724121,-0.3370913565158844,1.1839605569839478
-1.407330870628357,-0.33542400598526,1.169491171836853
-1.407570481300354,-0.33378544449806213,1.1551631689071655
-1.4078084230422974,-0.33217543363571167,1.140974521636963
-1.4080437421798706,-0.33059316873550415,1.1269214153289795
-1.408277153968811,-0.3290383219718933,1.1130011081695557
-1.4085079431533813,-0.32751017808914185,1.0992103815078735
-1.4087367057800293,-0.3260084390640259,1.085546612739563
-1.4089633226394653,-0.32453253865242004,1.072007179260254
-1.4091886281967163,-0.32308220863342285,1.0585896968841553
-1.4094115495681763,-0.3216567635536194,1.0452908277511597
-1.4096322059631348,-0.32025575637817383,1.0321080684661865
-1.4098514318466187,-0.31887897849082947,1.019039511680603
-1.410068154335022,-0.3175257444381714,1.0060819387435913
-1.4102832078933716,-0.31619584560394287,0.9932335019111633
-1.4104965925216675,-0.3148888647556305,0.9804918169975281
-1.4107085466384888,-0.3136044442653656,0.9678547382354736
-1.4109187126159668,-0.31234219670295715,0.955319881439209
-1.411126732826233,-0.31110161542892456,0.9428848028182983
-1.4113330841064453,-0.3098824620246887,0.9305474758148193
-1.4115384817123413,-0.3086845576763153,0.9183065295219421
-1.4117419719696045,-0.30750733613967896,0.9061591625213623
-1.411943793296814,-0.3063504993915558,0.8941035270690918
-1.412144422531128,-0.3052138686180115,0.8821380734443665
-1.4123435020446777,-0.3040970265865326,0.8702605366706848
-1.412540316581726,-0.3029995262622833,0.8584687113761902
-1.412736415863037,-0.30192136764526367,0.8467615842819214
-1.4129313230514526,-0.30086222290992737,0.8351372480392456
-1.413124918937683,-0.2998217046260834,0.8235937356948853
-1.4133167266845703,-0.2987995147705078,0.8121291399002075
-1.4135078191757202,-0.29779553413391113,0.8007422685623169
-1.4136966466903687,-0.29680919647216797,0.7894307374954224
-1.4138851165771484,-0.29584068059921265,0.7781939506530762
-1.4140719175338745,-0.2948894202709198,0.7670296430587769
-1.414257526397705,-0.2939552962779999,0.7559363842010498
-1.414442777633667,-0.2930382490158081,0.7449132204055786
-1.414625883102417,-0.29213768243789673,0.7339577674865723
-1.4148080348968506,-0.29125356674194336,0.7230690717697144
-1.4149894714355469,-0.29038575291633606,0.7122458219528198
-1.4151697158813477,-0.28953397274017334,0.7014864683151245
-1.4153488874435425,-0.2886979877948761,0.6907896399497986
-1.415527105331421,-0.28787761926651,0.680154025554657
-1.4157044887542725,-0.28707271814346313,0.6695783734321594
-1.4158802032470703,-0.2862829267978668,0.6590609550476074
-1.41605544090271,-0.28550830483436584,0.6486011147499084
-1.4162297248840332,-0.28474852442741394,0.6381972432136536
-1.4164026975631714,-0.2840034067630768,0.6278481483459473
-1.416575312614441,-0.2832728624343872,0.6175528168678284
-1.416746973991394,-0.2825567126274109,0.6073099970817566
-1.4169175624847412,-0.28185465931892395,0.5971183180809021
-1.4170870780944824,-0.2811666429042816,0.5869766473770142
-1.4172563552856445,-0.2804926335811615,0.5768843293190002
-1.4174247980117798,-0.2798323333263397,0.5668397545814514
-1.4175915718078613,-0.2791854739189148,0.5568417906761169
-1.4177582263946533,-0.2785521447658539,0.5468897223472595
-1.4179242849349976,-0.27793216705322266,0.5369823575019836
-1.4180892705917358,-0.277325302362442,0.5271185636520386
-1.4182542562484741,-0.2767316401004791,0.517297625541687
-1.4184174537658691,-0.2761506140232086,0.5075178742408752
-1.4185806512832642,-0.27558255195617676,0.497778981924057
-1.4187431335449219,-0.27502715587615967,0.4880797266960144
-1.4189049005508423,-0.2744842767715454,0.4784190356731415
-1.4190659523010254,-0.2739538252353668,0.4687960743904114
-1.4192265272140503,-0.27343571186065674,0.4592099189758301
-1.4193867444992065,-0.272929847240448,0.44965964555740356
-1.4195462465286255,-0.2724360525608063,0.44014424085617065
-1.419704556465149,-0.27195417881011963,0.4306626617908478
-1.419862985610962,-0.2714843451976776,0.42121443152427673
-1.420020341873169,-0.2710261642932892,0.41179826855659485
-1.420177698135376,-0.27057984471321106,0.40241363644599915
-1.420333981513977,-0.2701450288295746,0.3930593729019165
-1.420490026473999,-0.26972177624702454,0.3837348222732544
-1.4206461906433105,-0.2693100869655609,0.37443920969963074
-1.4208014011383057,-0.2689096927642822,0.36517152190208435
-1.4209556579589844,-0.2685205042362213,0.3559308648109436
-1.4211100339889526,-0.26814258098602295,0.3467167019844055
-1.4212640523910522,-0.2677758038043976,0.3375281095504761
-1.4214171171188354,-0.2674199938774109,0.32836413383483887
-1.4215703010559082,-0.2670752704143524,0.3192242681980133
-1.4217232465744019,-0.2667415142059326,0.31010764837265015
-1.421875238418579,-0.2664184868335724,0.3010132908821106
-1.4220271110534668,-0.2661062777042389,0.2919406592845917
-1.4221786260604858,-0.26580479741096497,0.28288891911506653
-1.4223299026489258,-0.2655140161514282,0.27385732531547546
-1.422480583190918,-0.2652337849140167,0.2648451030254364
-1.4226315021514893,-0.26496422290802,0.2558516561985016
-1.4227817058563232,-0.264705091714859,0.2468760460615158
-1.4229315519332886,-0.2644563913345337,0.23791763186454773
-1.4230810403823853,-0.2642180621623993,0.22897566854953766
-1.4232302904129028,-0.2639901041984558,0.22004950046539307
-1.42337965965271,-0.26377254724502563,0.21113842725753784
-1.4235285520553589,-0.26356518268585205,0.2022416591644287
-1.4236772060394287,-0.2633680999279022,0.19335854053497314
-1.4238258600234985,-0.26318123936653137,0.18448838591575623
-1.4239741563796997,-0.26300451159477234,0.17563046514987946
-1.4241223335266113,-0.2628379166126251,0.1667841076850891
-1.4242702722549438,-0.26268139481544495,0.1579485982656479
-1.4244180917739868,-0.2625349462032318,0.14912329614162445
-1.4245654344558716,-0.26239848136901855,0.1403074413537979
-1.4247132539749146,-0.2622721493244171,0.1315004974603653
-1.4248604774475098,-0.2621557116508484,0.12270164489746094
-1.4250071048736572,-0.2620491683483124,0.1139102429151535
-1.4251543283462524,-0.261952668428421,0.10512569546699524
-1.4253013134002686,-0.26186609268188477,0.09634727984666824
-1.4254481792449951,-0.2617894411087036,0.08757433295249939
-1.4255949258804321,-0.2617226541042328,0.07880619168281555
-1.425741195678711,-0.2616657018661499,0.07004217803478241
-1.4258880615234375,-0.2616187036037445,0.06128166615962982
-1.4260345697402954,-0.26158151030540466,0.052523963153362274
-1.4261809587478638,-0.26155418157577515,0.043768417090177536
-1.4263279438018799,-0.2615368068218231,0.03501438349485397
-1.4264743328094482,-0.26152917742729187,0.02626117691397667
-1.426620602607727,-0.26153138279914856,0.017508147284388542
-1.426767110824585,-0.26154348254203796,0.008754643611609936
-1.4269136190414429,-0.2615653872489929,2.6211111621473183e-16
-1.4270602464675903,-0.261597216129303,-0.008756441995501518
-1.4272067546844482,-0.2616388499736786,-0.017515340819954872
-1.4273532629013062,-0.2616903483867645,-0.026277359575033188
-1.4275001287460327,-0.2617517411708832,-0.03504316136240959
-1.4276469945907593,-0.26182305812835693,-0.04381340742111206
-1.4277937412261963,-0.26190420985221863,-0.05258875712752342
-1.427940845489502,-0.2619953453540802,-0.061369892209768295
-1.4280874729156494,-0.2620962858200073,-0.07015743851661682
-1.4282346963882446,-0.2622072994709015,-0.0789521187543869
-1.4283819198608398,-0.26232823729515076,-0.08775457739830017
-1.4285292625427246,-0.2624591886997223,-0.09656549245119095
-1.4286773204803467,-0.26260024309158325,-0.10538557171821594
-1.428824543952942,-0.26275116205215454,-0.11421539634466171
-1.428972601890564,-0.2629123032093048,-0.12305576354265213
-1.429120659828186,-0.26308348774909973,-0.13190729916095734
-1.4292691946029663,-0.26326489448547363,-0.14077073335647583
-1.4294177293777466,-0.26345643401145935,-0.14964669942855835
-1.429566502571106,-0.26365816593170166,-0.1585359424352646
-1.429715633392334,-0.2638701796531677,-0.16743914783000946
-1.4298642873764038,-0.2640923857688904,-0.1763569414615631
-1.4300140142440796,-0.2643250524997711,-0.18529020249843597
-1.4301637411117554,-0.2645680606365204,-0.1942395269870758
-1.4303135871887207,-0.26482143998146057,-0.20320561528205872
-1.4304637908935547,-0.2650853395462036,-0.21218925714492798
-1.430614948272705,-0.2653598487377167,-0.22119125723838806
-1.4307655096054077,-0.26564478874206543,-0.23021212220191956
-1.430916666984558,-0.26594042778015137,-0.23925276100635529
-1.4310680627822876,-0.2662467360496521,-0.24831387400627136
-1.4312198162078857,-0.2665638029575348,-0.25739622116088867
-1.4313721656799316,-0.2668917179107666,-0.2665005922317505
-1.4315252304077148,-0.2672305703163147,-0.27562782168388367
-1.431678295135498,-0.2675802707672119,-0.28477850556373596
-1.4318318367004395,-0.26794105768203735,-0.2939535677433014
-1.4319853782653809,-0.26831284165382385,-0.3031536340713501
-2.470766067504883,-0.4635612964630127,-0.53892582654953
-1.3948763608932495,-0.49699798226356506,2.1731343269348145
-1.3952949047088623,-0.4924488663673401,2.1447224617004395
-1.3956935405731201,-0.4879961609840393,2.1168057918548584
-1.3960243463516235,-0.4836203455924988,2.0892980098724365
-1.3964203596115112,-0.4793645441532135,2.0623831748962402
-1.3967370986938477,-0.4751761257648468,2.0358312129974365
-1.3970903158187866,-0.47109195590019226,2.009798526763916
-1.3974125385284424,-0.467086523771286,1.9841734170913696
-1.3977797031402588,-0.46318256855010986,1.9590497016906738
-1.3980783224105835,-0.45933997631073,1.9342552423477173
-1.398421287536621,-0.45559367537498474,1.9099352359771729
-1.3987157344818115,-0.45191100239753723,1.8859498500823975
-1.3989990949630737,-0.4483020305633545,1.862339735031128
-1.3993065357208252,-0.4447759985923767,1.8391404151916504
-1.3995845317840576,-0.44131365418434143,1.8162702322006226
-1.3998785018920898,-0.4379275441169739,1.7937785387039185
-1.4001407623291016,-0.43460074067115784,1.7715940475463867
-1.4004095792770386,-0.4313434958457947,1.7497564554214478
-1.4006420373916626,-0.428140789270401,1.7282029390335083
-1.4009028673171997,-0.4250108301639557,1.7070051431655884
-1.4011456966400146,-0.4219377636909485,1.6860970258712769
-1.4014047384262085,-0.4189303517341614,1.6655117273330688
-1.401628851890564,-0.4159718453884125,1.645180583000183
-1.4018269777297974,-0.41306349635124207,1.6251070499420166
-1.4020742177963257,-0.410226047039032,1.6053709983825684
-1.4022661447525024,-0.40742745995521545,1.5858447551727295
-1.4024850130081177,-0.4046904742717743,1.5666154623031616
-1.4026983976364136,-0.40200430154800415,1.54763925075531
-1.4028773307800293,-0.39935946464538574,1.5288779735565186
-1.403077483177185,-0.396770715713501,1.5103867053985596
-1.4032540321350098,-0.3942241370677948,1.4921106100082397
-1.4034456014633179,-0.3917295038700104,1.4740849733352661
-1.4036232233047485,-0.3892776668071747,1.4562735557556152
-1.4037916660308838,-0.38686883449554443,1.4386757612228394
-1.4039579629898071,-0.3845039904117584,1.4212937355041504
-1.4042361974716187,-0.38221320509910583,1.4042361974716187
-1.404518723487854,-0.3799658417701721,1.3873876333236694
-1.4047980308532715,-0.3777588903903961,1.3707354068756104
-1.4050731658935547,-0.3755912482738495,1.354274034500122
-1.4053456783294678,-0.373462438583374,1.3380002975463867
-1.4056154489517212,-0.37137162685394287,1.321909785270691
-1.4058821201324463,-0.369317889213562,1.3059977293014526
-1.4061455726623535,-0.367300420999527,1.2902597188949585
-1.4064067602157593,-0.3653186857700348,1.2746927738189697
-1.406664490699768,-0.36337170004844666,1.2592917680740356
-1.4069197177886963,-0.3614589273929596,1.244053602218628
-1.4071722030639648,-0.3595796227455139,1.2289743423461914
-1.4074221849441528,-0.35773321986198425,1.2140507698059082
-1.4076699018478394,-0.3559190034866333,1.1992791891098022
-1.407914638519287,-0.35413631796836853,1.184655785560608
-1.4081568717956543,-0.3523845672607422,1.1701775789260864
-1.4083970785140991,-0.35066327452659607,1.155841588973999
-1.4086347818374634,-0.34897172451019287,1.1416443586349487
-1.4088704586029053,-0.34730952978134155,1.1275831460952759
-1.4091037511825562,-0.3456760048866272,1.1136544942855835
-1.4093350172042847,-0.3440706729888916,1.099855899810791
-1.4095637798309326,-0.342492938041687,1.086184024810791
-1.4097908735275269,-0.34094250202178955,1.0726367235183716
-1.4100160598754883,-0.33941879868507385,1.059211254119873
-1.4102387428283691,-0.3379211723804474,1.0459043979644775
-1.4104596376419067,-0.33644935488700867,1.0327138900756836
-1.4106789827346802,-0.33500292897224426,1.0196377038955688
-1.410895824432373,-0.3335812985897064,1.0066725015640259
-1.4111109972000122,-0.3321841359138489,0.9938164949417114
-1.4113246202468872,-0.330811083316803,0.981067419052124
-1.411536455154419,-0.3294616937637329,0.9684228301048279
-1.4117469787597656,-0.3281356394290924,0.9558806419372559
-1.4119551181793213,-0.3268323540687561,0.9434382319450378
-1.4121615886688232,-0.3255515694618225,0.9310937523841858
-1.4123671054840088,-0.3242930769920349,0.9188455939292908
-1.4125703573226929,-0.3230562210083008,0.9066908359527588
-1.4127724170684814,-0.32184094190597534,0.8946282863616943
-1.412973403930664,-0.32064691185951233,0.882655918598175
-1.4131723642349243,-0.3194735050201416,0.8707712292671204
-1.4133695363998413,-0.3183205723762512,0.8589726686477661
-1.4135656356811523,-0.3171878755092621,0.8472586274147034
-1.4137606620788574,-0.3160751760005951,0.8356274366378784
-1.4139543771743774,-0.3149820566177368,0.8240771293640137
-1.4141461849212646,-0.3139081299304962,0.8126057386398315
-1.4143375158309937,-0.3128534257411957,0.8012123107910156
-1.414526343345642,-0.3118172287940979,0.7898941040039062
-1.4147149324417114,-0.3107997179031372,0.77865070104599
-1.4149017333984375,-0.3098003566265106,0.7674797177314758
-1.4150876998901367,-0.3088190257549286,0.7563800811767578
-1.4152729511260986,-0.30785560607910156,0.7453504800796509
-1.4154560565948486,-0.3069094121456146,0.7343884706497192
-1.4156384468078613,-0.3059806525707245,0.7234934568405151
-1.4158198833465576,-0.3050689399242401,0.7126638293266296
-1.4160001277923584,-0.3041740357875824,0.7018980979919434
-1.4161795377731323,-0.3032958209514618,0.6911950707435608
-1.4163576364517212,-0.30243396759033203,0.6805530786514282
-1.4165351390838623,-0.30158835649490356,0.669971227645874
-1.4167109727859497,-0.3007586598396301,0.6594476699829102
-1.4168864488601685,-0.2999448776245117,0.6489816904067993
-1.4170606136322021,-0.2991466522216797,0.6385717391967773
-1.417233943939209,-0.2983638644218445,0.6282166242599487
-1.417406678199768,-0.29759639501571655,0.6179152727127075
-1.4175779819488525,-0.296843945980072,0.6076662540435791
-1.4177489280700684,-0.2961064577102661,0.5974686741828918
-1.4179185628890991,-0.29538366198539734,0.5873211026191711
-1.4180877208709717,-0.2946754992008209,0.5772227048873901
-1.4182562828063965,-0.2939818203449249,0.5671723484992981
-1.4184234142303467,-0.2933022975921631,0.5571685433387756
-1.4185900688171387,-0.2926369607448578,0.5472105741500854
-1.4187562465667725,-0.2919856309890747,0.5372974276542664
-1.4189213514328003,-0.29134806990623474,0.5274278521537781
-1.4190864562988281,-0.29072436690330505,0.5176011323928833
-1.4192497730255127,-0.29011401534080505,0.5078156590461731
-1.4194132089614868,-0.28951725363731384,0.4980711340904236
-1.419575572013855,-0.2889336943626404,0.4883660674095154
-1.419737458229065,-0.28836336731910706,0.4786997437477112
-1.419898509979248,-0.28780606389045715,0.46907109022140503
-1.420059084892273,-0.2872617542743683,0.45947927236557007
-1.4202194213867188,-0.2867303192615509,0.44992342591285706
-1.4203788042068481,-0.2862115502357483,0.44040238857269287
-1.4205373525619507,-0.2857053279876709,0.43091529607772827
-1.4206957817077637,-0.2852116823196411,0.4214614927768707
-1.4208533763885498,-0.2847304046154022,0.4120398461818695
-1.4210108518600464,-0.2842615246772766,0.40264973044395447
-1.421167254447937,-0.28380468487739563,0.3932899236679077
-1.421323299407959,-0.2833600342273712,0.38395988941192627
-1.42147958278656,-0.282927542924881,0.37465888261795044
-1.4216347932815552,-0.28250688314437866,0.3653857409954071
-1.421789288520813,-0.28209802508354187,0.3561396598815918
-1.4219435453414917,-0.2817009687423706,0.34692007303237915
-1.4220978021621704,-0.2813156843185425,0.3377261161804199
-1.4222508668899536,-0.2809418737888336,0.32855677604675293
-1.422404170036316,-0.28057974576950073,0.3194115459918976
-1.42255699634552,-0.28022903203964233,0.31028950214385986
-1.422709345817566,-0.27988970279693604,0.3011898696422577
-1.4228613376617432,-0.27956172823905945,0.29211193323135376
-1.4230129718780518,-0.2792450487613678,0.2830548882484436
-1.4231642484664917,-0.27893951535224915,0.27401798963546753
-1.4233146905899048,-0.2786450684070587,0.26500043272972107
-1.4234658479690552,-0.27836188673973083,0.25600171089172363
-1.4236162900924683,-0.2780896723270416,0.2470208704471588
-1.4237661361694336,-0.2778283655643463,0.23805716633796692
-1.4239156246185303,-0.2775779962539673,0.2291099727153778
-1.4240652322769165,-0.27733856439590454,0.22017858922481537
-1.4242147207260132,-0.2771100103855133,0.2112622857093811
-1.4243634939193726,-0.27689215540885925,0.20236028730869293
-1.4245123863220215,-0.27668508887290955,0.1934719681739807
-1.4246609210968018,-0.2764887511730194,0.18459659814834595
-1.424809217453003,-0.2763030529022217,0.17573346197605133
-1.4249577522277832,-0.2761280834674835,0.16688194870948792
-1.4251055717468262,-0.2759636342525482,0.15804123878479004
-1.4252533912658691,-0.27580976486206055,0.14921073615550995
-1.425400972366333,-0.27566641569137573,0.14038974046707153
-1.425548791885376,-0.27553367614746094,0.13157761096954346
-1.4256961345672607,-0.27541136741638184,0.12277361005544662
-1.4258430004119873,-0.27529945969581604,0.11397705972194672
-1.425990343093872,-0.2751981317996979,0.10518737137317657
-1.4261372089385986,-0.27510711550712585,0.09640379250049591
-1.4262841939926147,-0.2750265598297119,0.08762569725513458
-1.4264312982559204,-0.27495646476745605,0.07885242998600006
-1.4265775680541992,-0.2748965919017792,0.07008326053619385
-1.4267246723175049,-0.27484726905822754,0.06131761893630028
-1.4268709421157837,-0.2748081386089325,0.052554767578840256
-1.4270174503326416,-0.27477943897247314,0.04379408806562424
-1.4271643161773682,-0.2747611403465271,0.035034917294979095
-1.4273110628128052,-0.2747531831264496,0.02627658098936081
-1.4274574518203735,-0.27475547790527344,0.0175184179097414
-1.427604079246521,-0.274768203496933,0.008759778924286366
-1.4277507066726685,-0.27479124069213867,2.622648791644381e-16
-1.4278972148895264,-0.2748246490955353,-0.008761578239500523
-1.4280437231063843,-0.27486833930015564,-0.01752561330795288
-1.4281905889511108,-0.2749224901199341,-0.026292771100997925
-1.4283372163772583,-0.27498695254325867,-0.03506371006369591
-1.4284844398498535,-0.2750619351863861,-0.04383911192417145
-1.4286311864852905,-0.2751471698284149,-0.05261960253119469
-1.4287779331207275,-0.27524280548095703,-0.06140586733818054
-1.4289252758026123,-0.2753489911556244,-0.07019859552383423
-1.429072618484497,-0.27546560764312744,-0.07899843901395798
-1.4292197227478027,-0.2755926251411438,-0.08780604600906372
-1.4293674230575562,-0.2757302224636078,-0.09662213921546936
-1.4295154809951782,-0.2758783996105194,-0.10544739663600922
-1.429662823677063,-0.27603697776794434,-0.11428239941596985
-1.4298107624053955,-0.27620622515678406,-0.12312794476747513
-1.4299589395523071,-0.2763860821723938,-0.1319846659898758
-1.430107593536377,-0.2765766680240631,-0.14085330069065094
-1.4302563667297363,-0.27677789330482483,-0.1497344970703125
-1.430404782295227,-0.27698978781700134,-0.1586288958787918
-1.4305541515350342,-0.27721256017684937,-0.16753734648227692
-1.4307029247283936,-0.2774460017681122,-0.1764603853225708
-1.4308527708053589,-0.27769041061401367,-0.1853988766670227
-1.4310028553009033,-0.27794575691223145,-0.19435347616672516
-1.4311528205871582,-0.27821195125579834,-0.2033248394727707
-1.431302785873413,-0.2784891426563263,-0.212313711643219
-1.431454062461853,-0.2787775695323944,-0.2213210016489029
-1.4316047430038452,-0.2790769040584564,-0.230347141623497
-1.4317559003829956,-0.2793874740600586,-0.23939308524131775
-1.4319075345993042,-0.2797092795372009,-0.24845953285694122
-1.432059407234192,-0.2800423800945282,-0.25754719972610474
-1.4322118759155273,-0.28038689494132996,-0.26665693521499634
-1.4323649406433105,-0.2807428538799286,-0.2757894992828369
-1.4325181245803833,-0.2811102867126465,-0.2849455773830414
-1.4326717853546143,-0.2814892828464508,-0.2941260039806366
-1.4328254461288452,-0.28187987208366394,-0.3033314645290375
-2.3518638610839844,-0.4632928967475891,-0.5129908323287964
-1.39595627784729,-0.49758002161979675,2.0346932411193848
-1.39630925655365,-0.4933032691478729,2.0086750984191895
-1.3966312408447266,-0.48910894989967346,1.9830639362335205
-1.3969981670379639,-0.4850209355354309,1.9579544067382812
-1.3972965478897095,-0.4809971749782562,1.9331737756729126
-1.397639274597168,-0.4770742356777191,1.9088672399520874
-1.3979337215423584,-0.4732179641723633,1.8848954439163208
-1.398216962814331,-0.4694388210773468,1.8612984418869019
-1.398524284362793,-0.46574658155441284,1.838112235069275
-1.3988020420074463,-0.4621209502220154,1.8152546882629395
-1.399095058441162,-0.45857492089271545,1.7927746772766113
-1.3993561267852783,-0.4550909399986267,1.7706011533737183
-1.3996248245239258,-0.45168012380599976,1.7487759590148926
-1.3998574018478394,-0.4483264982700348,1.7272347211837769
-1.400118350982666,-0.4450490474700928,1.7060492038726807
-1.4003609418869019,-0.4418310821056366,1.6851527690887451
-1.4006197452545166,-0.4386819005012512,1.664578914642334
-1.4008439779281616,-0.4355839192867279,1.6442592144012451
-1.4010416269302368,-0.43253836035728455,1.6241966485977173
-1.4012887477874756,-0.4295671284198761,1.6044715642929077
-1.4014805555343628,-0.42663660645484924,1.584956407546997
-1.4016995429992676,-0.42377060651779175,1.5657379627227783
-1.4019131660461426,-0.42095792293548584,1.546772837638855
-1.4020915031433105,-0.4181882441043854,1.5280216932296753
-1.4022917747497559,-0.4154775142669678,1.5095409154891968
-1.402468204498291,-0.4128108620643616,1.4912749528884888
-1.40265953540802,-0.4101985991001129,1.473259449005127
-1.4028372764587402,-0.40763115882873535,1.4554580450057983
-1.403005599975586,-0.405108779668808,1.4378701448440552
-1.4032052755355835,-0.40264207124710083,1.4205317497253418
-1.4034504890441895,-0.40023383498191833,1.4034504890441895
-1.4037330150604248,-0.39788052439689636,1.3866114616394043
-1.4040117263793945,-0.39556944370269775,1.3699681758880615
-1.4042867422103882,-0.39329957962036133,1.3535159826278687
-1.4045590162277222,-0.3910703957080841,1.3372513055801392
-1.404828667640686,-0.38888102769851685,1.3211698532104492
-1.4050952196121216,-0.38673046231269836,1.3052667379379272
-1.4053584337234497,-0.3846178352832794,1.2895375490188599
-1.405619502067566,-0.3825426995754242,1.2739791870117188
-1.4058773517608643,-0.38050395250320435,1.2585870027542114
-1.4061323404312134,-0.37850096821784973,1.2433573007583618
-1.4063845872879028,-0.37653303146362305,1.2282865047454834
-1.4066346883773804,-0.3745996356010437,1.2133715152740479
-1.40688157081604,-0.3726997673511505,1.1986076831817627
-1.407126545906067,-0.3708330988883972,1.1839927434921265
-1.4073688983917236,-0.36899882555007935,1.169522762298584
-1.4076087474822998,-0.36719629168510437,1.155194640159607
-1.4078465700149536,-0.36542508006095886,1.141005516052246
-1.4080818891525269,-0.36368444561958313,1.1269519329071045
-1.4083150625228882,-0.36197391152381897,1.1130311489105225
-1.408545970916748,-0.36029285192489624,1.0992400646209717
-1.408774733543396,-0.35864073038101196,1.0855759382247925
-1.4090014696121216,-0.3570171594619751,1.0720361471176147
-1.409226655960083,-0.35542160272598267,1.058618187904358
-1.4094494581222534,-0.3538534641265869,1.0453189611434937
-1.409670114517212,-0.35231220722198486,1.0321358442306519
-1.4098892211914062,-0.3507975935935974,1.0190668106079102
-1.4101059436798096,-0.34930890798568726,1.0061088800430298
-1.4103211164474487,-0.3478459119796753,0.9932602047920227
-1.4105345010757446,-0.34640809893608093,0.9805181622505188
-1.4107463359832764,-0.3449951112270355,0.9678807258605957
-1.4109563827514648,-0.34360647201538086,0.9553454518318176
-1.4111645221710205,-0.34224173426628113,0.9429100155830383
-1.411370873451233,-0.34090057015419006,0.9305723905563354
-1.411576271057129,-0.33958274126052856,0.9183310866355896
-1.4117796421051025,-0.3382876515388489,0.9061833024024963
-1.411981463432312,-0.3370150327682495,0.894127368927002
-1.4121824502944946,-0.33576470613479614,0.8821617960929871
-1.4123810529708862,-0.33453595638275146,0.8702836632728577
-1.4125783443450928,-0.3333286941051483,0.8584917783737183
-1.4127743244171143,-0.3321426212787628,0.8467843532562256
-1.4129691123962402,-0.3309773802757263,0.8351595401763916
-1.4131625890731812,-0.3298327326774597,0.8236157298088074
-1.4133543968200684,-0.3287081718444824,0.812150776386261
-1.4135454893112183,-0.3276037275791168,0.8007636666297913
-1.4137341976165771,-0.3265186548233032,0.7894517183303833
-1.4139227867126465,-0.3254532217979431,0.778214693069458
-1.414109468460083,-0.3244067132472992,0.7670499682426453
-1.4142950773239136,-0.3233790993690491,0.7559564709663391
-1.4144803285598755,-0.3223702311515808,0.744933009147644
-1.4146634340286255,-0.32137948274612427,0.7339772582054138
-1.4148458242416382,-0.3204069435596466,0.7230883836746216
-1.4150267839431763,-0.319452166557312,0.7122646570205688
-1.4152072668075562,-0.3185151517391205,0.7015051245689392
-1.4153865575790405,-0.317595511674881,0.6908079981803894
-1.4155645370483398,-0.3166930079460144,0.6801720261573792
-1.4157419204711914,-0.3158075511455536,0.6695960760116577
-1.4159177541732788,-0.3149387538433075,0.6590784788131714
-1.4160929918289185,-0.31408655643463135,0.6486182808876038
-1.4162672758102417,-0.31325072050094604,0.6382141709327698
-1.4164403676986694,-0.3124310076236725,0.6278648376464844
-1.4166131019592285,-0.3116273880004883,0.6175693273544312
-1.4167845249176025,-0.3108395040035248,0.607326090335846
-1.416954755783081,-0.3100671172142029,0.597133994102478
-1.417124629020691,-0.30931031703948975,0.5869922041893005
-1.417293667793274,-0.3085687756538391,0.5768994688987732
-1.4174619913101196,-0.3078423738479614,0.56685471534729
-1.4176291227340698,-0.3071307837963104,0.5568564534187317
-1.4177957773208618,-0.30643412470817566,0.5469042062759399
-1.417961835861206,-0.30575206875801086,0.536996603012085
-1.4181267023086548,-0.3050844371318817,0.5271324515342712
-1.418291449546814,-0.304431289434433,0.5173112154006958
-1.418454885482788,-0.30379217863082886,0.5075312852859497
-1.4186182022094727,-0.30316728353500366,0.49779218435287476
-1.4187806844711304,-0.30255624651908875,0.4880926012992859
-1.4189423322677612,-0.30195900797843933,0.47843167185783386
-1.4191033840179443,-0.30137547850608826,0.46880844235420227
-1.4192638397216797,-0.3008054792881012,0.4592219889163971
-1.4194238185882568,-0.300248920917511,0.4496713876724243
-1.4195834398269653,-0.29970574378967285,0.4401557743549347
-1.4197417497634888,-0.2991756200790405,0.4306739270687103
-1.4199002981185913,-0.2986587584018707,0.42122548818588257
-1.4200576543807983,-0.29815474152565,0.4118090867996216
-1.4202148914337158,-0.29766371846199036,0.4024241864681244
-1.4203712940216064,-0.29718539118766785,0.39306965470314026
-1.420527458190918,-0.29671981930732727,0.3837449252605438
-1.4206832647323608,-0.2962668538093567,0.3744490146636963
-1.420838475227356,-0.29582637548446655,0.3651810586452484
-1.4209930896759033,-0.2953982949256897,0.3559402525424957
-1.421147346496582,-0.29498252272605896,0.34672579169273376
-1.4213014841079712,-0.29457905888557434,0.3375369906425476
-1.4214545488357544,-0.29418763518333435,0.3283727765083313
-1.4216073751449585,-0.29380834102630615,0.31923261284828186
-1.4217604398727417,-0.29344117641448975,0.3101157546043396
-1.4219125509262085,-0.29308584332466125,0.30102118849754333
-1.4220645427703857,-0.29274240136146545,0.2919483482837677
-1.4222160577774048,-0.2924107611179352,0.28289636969566345
-1.4223674535751343,-0.29209086298942566,0.2738645672798157
-1.4225177764892578,-0.29178252816200256,0.26485204696655273
-1.422668695449829,-0.2914859652519226,0.25585833191871643
-1.422818899154663,-0.2912009060382843,0.24688249826431274
-1.4229686260223389,-0.2909272611141205,0.23792381584644318
-1.4231181144714355,-0.2906651198863983,0.2289816439151764
-1.4232676029205322,-0.29041439294815063,0.22005526721477509
-1.4234169721603394,-0.29017505049705505,0.21114395558834076
-1.4235658645629883,-0.289946973323822,0.20224697887897491
-1.4237148761749268,-0.2897301912307739,0.19336366653442383
-1.4238630533218384,-0.28952452540397644,0.18449321389198303
-1.42401123046875,-0.28933006525039673,0.17563503980636597
-1.4241597652435303,-0.2891468405723572,0.1667884737253189
-1.4243074655532837,-0.2889746129512787,0.1579527109861374
-1.424455165863037,-0.2888135015964508,0.14912717044353485
-1.4246026277542114,-0.28866341710090637,0.1403111070394516
-1.4247502088546753,-0.2885243892669678,0.1315038949251175
-1.42489755153656,-0.28839632868766785,0.12270484119653702
-1.4250444173812866,-0.28827914595603943,0.11391322314739227
-1.4251916408538818,-0.28817301988601685,0.1051284447312355
-1.425338625907898,-0.28807777166366577,0.0963498055934906
-1.4254854917526245,-0.2879934310913086,0.08757662773132324
-1.425632357597351,-0.2879199683666229,0.0788082629442215
-1.4257786273956299,-0.2878572940826416,0.07004401087760925
-1.4259254932403564,-0.28780561685562134,0.06128327548503876
-1.4260717630386353,-0.28776466846466064,0.05252533033490181
-1.4262182712554932,-0.28773462772369385,0.043769560754299164
-1.4263651371002197,-0.28771549463272095,0.0350152961909771
-1.4265117645263672,-0.2877071499824524,0.026261866092681885
-1.426658034324646,-0.2877095639705658,0.017508607357740402
-1.426804542541504,-0.2877228558063507,0.008754872716963291
-1.4269509315490723,-0.28774696588516235,2.6211797188764867e-16
-1.4270975589752197,-0.2877819538116455,-0.008756671100854874
-1.4272441864013672,-0.2878277599811554,-0.017515800893306732
-1.427390694618225,-0.2878844141960144,-0.026278046891093254
-1.4275373220443726,-0.28795191645622253,-0.035044074058532715
-1.4276844263076782,-0.2880304157733917,-0.043814558535814285
-1.4278309345245361,-0.2881196439266205,-0.052590128034353256
-1.4279778003692627,-0.2882198691368103,-0.06137147918343544
-1.4281249046325684,-0.288331001996994,-0.07015927881002426
-1.4282721281051636,-0.2884531319141388,-0.07895419001579285
-1.4284193515777588,-0.28858616948127747,-0.08775687962770462
-1.428566813468933,-0.2887302339076996,-0.0965680256485939
-1.4287148714065552,-0.2888854146003723,-0.1053883358836174
-1.4288619756698608,-0.2890514135360718,-0.11421838402748108
-1.429010033607483,-0.2892286777496338,-0.12305898219347
-1.429158091545105,-0.289417028427124,-0.1319107562303543
-1.4293063879013062,-0.28961652517318726,-0.14077438414096832
-1.429455280303955,-0.28982728719711304,-0.14965063333511353
-1.4296036958694458,-0.2900491952896118,-0.15854007005691528
-1.4297529458999634,-0.2902824580669403,-0.16744352877140045
-1.4299018383026123,-0.2905268967151642,-0.1763615608215332
-1.4300516843795776,-0.2907828986644745,-0.18529507517814636
-1.4302011728286743,-0.29105016589164734,-0.1942446082830429
-1.4303512573242188,-0.29132896661758423,-0.2032109647989273
-1.430501103401184,-0.2916191816329956,-0.2121947854757309
-1.430652141571045,-0.2919211983680725,-0.2211970090866089
-1.430802822113037,-0.2922346591949463,-0.23021812736988068
-1.4309539794921875,-0.2925598919391632,-0.23925898969173431
-1.4311054944992065,-0.2928968667984009,-0.24832035601139069
-1.4312574863433838,-0.29324573278427124,-0.2574029862880707
-1.4314099550247192,-0.2936064600944519,-0.266507625579834
-1.431562900543213,-0.2939791977405548,-0.2756350636482239
-1.4317158460617065,-0.29436394572257996,-0.2847859859466553
-1.431869387626648,-0.2947608232498169,-0.2939612865447998
-1.432023048400879,-0.2951698303222656,-0.30316162109375
-2.2933390140533447,-0.47332876920700073,-0.500225305557251
-1.3985625505447388,-0.499216765165329,1.9101282358169556
-1.3988566398620605,-0.49518129229545593,1.8861398696899414
-1.3991397619247437,-0.4912267029285431,1.8625268936157227
-1.3994466066360474,-0.487362802028656,1.8393244743347168
-1.3997235298156738,-0.48356857895851135,1.816450595855713
-1.4000153541564941,-0.47985750436782837,1.7939538955688477
-1.400275707244873,-0.4762115478515625,1.771764874458313
-1.40054452419281,-0.4726423919200897,1.7499250173568726
-1.4007771015167236,-0.46913307905197144,1.7283695936203003
-1.4010382890701294,-0.465703547000885,1.7071701288223267
-1.4012808799743652,-0.4623361825942993,1.6862596273422241
-1.4015402793884277,-0.45904096961021423,1.6656728982925415
-1.4017646312713623,-0.45579925179481506,1.645339846611023
-1.4019628763198853,-0.4526124596595764,1.6252646446228027
-1.4022107124328613,-0.44950351119041443,1.6055272817611694
-1.402402400970459,-0.44643691182136536,1.5859988927841187
-1.4026213884353638,-0.4434378743171692,1.566767692565918
-1.4028353691101074,-0.44049468636512756,1.547790288925171
-1.403013825416565,-0.43759647011756897,1.529026746749878
-1.4032143354415894,-0.4347599744796753,1.5105340480804443
-1.4033907651901245,-0.431969553232193,1.4922560453414917
-1.4035825729370117,-0.42923614382743835,1.474228858947754
-1.403760313987732,-0.4265495240688324,1.4564156532287598
-1.4039297103881836,-0.42391034960746765,1.4388172626495361
-1.4041305780410767,-0.42132943868637085,1.4214684963226318
-1.404375672340393,-0.4188094139099121,1.404375672340393
-1.4046584367752075,-0.4163469076156616,1.3875256776809692
-1.4049373865127563,-0.4139285385608673,1.3708714246749878
-1.4052127599716187,-0.41155338287353516,1.3544085025787354
-1.4054850339889526,-0.4092206656932831,1.3381329774856567
-1.4057546854019165,-0.4069296419620514,1.3220406770706177
-1.4060214757919312,-0.4046792984008789,1.3061271905899048
-1.4062848091125488,-0.40246862173080444,1.290387511253357
-1.4065459966659546,-0.4002971351146698,1.274819016456604
-1.4068037271499634,-0.39816370606422424,1.2594163417816162
-1.4070590734481812,-0.3960678279399872,1.2441768646240234
-1.4073115587234497,-0.3940085470676422,1.2290960550308228
-1.4075617790222168,-0.39198538661003113,1.214171051979065
-1.4078088998794556,-0.38999736309051514,1.1993976831436157
-1.4080537557601929,-0.38804399967193604,1.1847728490829468
-1.4082962274551392,-0.38612455129623413,1.1702933311462402
-1.408536434173584,-0.38423845171928406,1.1559560298919678
