-1.4335873126983643,0.13612067699432373,-0.2851582467556
-1.3917304277420044,0.24039018154144287,2.4922828674316406
-1.3922536373138428,0.23787128925323486,2.4576714038848877
-1.3926957845687866,0.23540154099464417,2.423654317855835
-1.393172264099121,0.23299850523471832,2.3904097080230713
-1.3936737775802612,0.23065835237503052,2.3578941822052
-1.3941025733947754,0.22836299240589142,2.3259196281433105
-1.394533634185791,0.22612300515174866,2.2945914268493652
-1.3949800729751587,0.2239387035369873,2.263909339904785
-1.3953717947006226,0.2217971235513687,2.2337393760681152
-1.3957951068878174,0.21971045434474945,2.2042014598846436
-1.396158218383789,0.21766263246536255,2.175131320953369
-1.3965786695480347,0.21567058563232422,2.146695613861084
-1.3969793319702148,0.21372075378894806,2.118756055831909
-1.3973114490509033,0.21180447936058044,2.091224431991577
-1.3977079391479492,0.20994065701961517,2.0642848014831543
-1.398024320602417,0.20810618996620178,2.0377073287963867
-1.398376703262329,0.20631735026836395,2.0116491317749023
-1.3986979722976685,0.2045629620552063,1.985998511314392
-1.399064302444458,0.2028530389070511,1.9608502388000488
-1.3993620872497559,0.20116999745368958,1.9360313415527344
-1.399703860282898,0.19952908158302307,1.9116870164871216
-1.399997591972351,0.19791609048843384,1.8876782655715942
-1.400280237197876,0.19633539021015167,1.8640451431274414
-1.400586724281311,0.19479097425937653,1.8408229351043701
-1.400863766670227,0.19327446818351746,1.8179302215576172
-1.4011567831039429,0.1917913407087326,1.7954164743423462
-1.4014172554016113,0.19033409655094147,1.7732092142105103
-1.4016859531402588,0.18890751898288727,1.7513511180877686
-1.4019191265106201,0.18750494718551636,1.7297786474227905
-1.4021809101104736,0.18613427877426147,1.7085623741149902
-1.4024239778518677,0.18478843569755554,1.6876353025436401
-1.4026833772659302,0.18347136676311493,1.6670314073562622
-1.4029083251953125,0.18217575550079346,1.6466822624206543
-1.403106927871704,0.18090207874774933,1.6265908479690552
-1.4033550024032593,0.17965948581695557,1.606837511062622
-1.403548240661621,0.17843398451805115,1.5872946977615356
-1.4037686586380005,0.1772354692220688,1.5680493116378784
-1.4039843082427979,0.1760593056678772,1.549057960510254
-1.4041651487350464,0.17490121722221375,1.5302814245224
-1.4043675661087036,0.17376773059368134,1.5117754936218262
-1.4045463800430298,0.1726527065038681,1.4934848546981812
-1.404740333557129,0.17156043648719788,1.4754449129104614
-1.404919981956482,0.17048683762550354,1.4576188325881958
-1.405090570449829,0.1694321185350418,1.440006971359253
-1.4052585363388062,0.16839660704135895,1.4226104021072388
-1.4055440425872803,0.16739417612552643,1.4055440425872803
-1.405827522277832,0.16640999913215637,1.388680338859558
-1.406107783317566,0.1654435247182846,1.3720133304595947
-1.406383991241455,0.16449427604675293,1.3555374145507812
-1.4066574573516846,0.16356202960014343,1.3392492532730103
-1.406928300857544,0.16264642775058746,1.3231444358825684
-1.407195806503296,0.1617470532655716,1.307218074798584
-1.40746009349823,0.16086353361606598,1.2914659976959229
-1.4077223539352417,0.15999571979045868,1.2758852243423462
-1.407981038093567,0.15914307534694672,1.2604703903198242
-1.4082372188568115,0.15830543637275696,1.2452186346054077
-1.408490538597107,0.15748244524002075,1.2301257848739624
-1.4087414741516113,0.1566738486289978,1.21518874168396
-1.4089900255203247,0.15587937831878662,1.2004039287567139
-1.4092358350753784,0.15509870648384094,1.1857675313949585
-1.4094792604446411,0.15433160960674286,1.1712764501571655
-1.4097199440002441,0.1535777747631073,1.156927227973938
-1.4099584817886353,0.15283702313899994,1.1427171230316162
-1.410194993019104,0.15210910141468048,1.1286431550979614
-1.4104292392730713,0.15139374136924744,1.1147019863128662
-1.410660743713379,0.15069067478179932,1.1008903980255127
-1.4108904600143433,0.14999976754188538,1.0872063636779785
-1.4111181497573853,0.14932076632976532,1.0736466646194458
-1.411344289779663,0.14865350723266602,1.060209035873413
-1.4115679264068604,0.1479976773262024,1.046890139579773
-1.4117895364761353,0.1473531275987625,1.033687710762024
-1.412009596824646,0.14671970903873444,1.0205994844436646
-1.4122271537780762,0.1460971236228943,1.0076223611831665
-1.4124431610107422,0.1454852819442749,0.9947546720504761
-1.4126572608947754,0.14488396048545837,0.9819937944412231
-1.4128698110580444,0.14429302513599396,0.9693375825881958
-1.4130810499191284,0.14371232688426971,0.9567840099334717
-1.4132899045944214,0.14314156770706177,0.944330096244812
-1.413496971130371,0.14258065819740295,0.9319742321968079
-1.413703203201294,0.1420295387506485,0.9197148084640503
-1.4139071702957153,0.14148789644241333,0.9075489044189453
-1.4141098260879517,0.14095568656921387,0.8954752087593079
-1.414311170578003,0.14043274521827698,0.8834916353225708
-1.4145113229751587,0.13991893827915192,0.8715962767601013
-1.4147090911865234,0.13941402733325958,0.8597867488861084
-1.4149057865142822,0.13891799747943878,0.8480619192123413
-1.4151012897491455,0.13843068480491638,0.8364198207855225
-1.4152954816818237,0.13795197010040283,0.8248587846755981
-1.4154878854751587,0.1374816596508026,0.8133767247200012
-1.415679693222046,0.13701976835727692,0.8019726872444153
-1.415869116783142,0.13656598329544067,0.7906438708305359
-1.4160586595535278,0.13612042367458344,0.779390275478363
-1.4162461757659912,0.13568277657032013,0.7682089805603027
-1.41643226146698,0.13525299727916718,0.7570987939834595
-1.4166178703308105,0.13483105599880219,0.7460587620735168
-1.4168018102645874,0.13441672921180725,0.7350866794586182
-1.4169845581054688,0.1340099722146988,0.7241814136505127
-1.4171665906906128,0.13361071050167084,0.7133417129516602
-1.4173476696014404,0.13321883976459503,0.7025660872459412
-1.4175273180007935,0.13283421099185944,0.691852867603302
-1.41770601272583,0.13245677947998047,0.6812009811401367
-1.417884111404419,0.13208647072315216,0.6706092357635498
-1.418060302734375,0.13172310590744019,0.6600757837295532
-1.418236494064331,0.13136674463748932,0.649600088596344
-1.418411374092102,0.13101719319820404,0.6391804218292236
-1.418584942817688,0.1306743621826172,0.6288154721260071
-1.4187580347061157,0.13033826649188995,0.6185044050216675
-1.4189304113388062,0.1300087720155716,0.6082459092140198
-1.4191014766693115,0.12968578934669495,0.5980386734008789
-1.4192715883255005,0.12936925888061523,0.5878815650939941
-1.4194414615631104,0.12905915081501007,0.5777737498283386
-1.4196102619171143,0.1287553459405899,0.567713737487793
-1.4197781085968018,0.12845776975154877,0.5577006340026855
-1.4199448823928833,0.12816637754440308,0.5477331876754761
-1.4201115369796753,0.12788115441799164,0.537810742855072
-1.4202771186828613,0.12760195136070251,0.527931809425354
-1.420442819595337,0.1273288130760193,0.518095850944519
-1.4206064939498901,0.12706151604652405,0.5083011388778687
-1.4207700490951538,0.12680014967918396,0.4985472559928894
-1.4209330081939697,0.12654462456703186,0.48883306980133057
-1.421095609664917,0.12629488110542297,0.4791576862335205
-1.4212570190429688,0.12605081498622894,0.4695199131965637
-1.4214180707931519,0.12581244111061096,0.4599190056324005
-1.4215788841247559,0.12557971477508545,0.45035409927368164
-1.421738624572754,0.12535253167152405,0.4408240020275116
-1.4218976497650146,0.12513083219528198,0.4313279092311859
-1.4220565557479858,0.12491468340158463,0.42186519503593445
-1.4222145080566406,0.12470390647649765,0.41243457794189453
-1.4223722219467163,0.12449855357408524,0.4030354619026184
-1.4225291013717651,0.12429850548505783,0.3936668038368225
-1.4226857423782349,0.12410379946231842,0.3843279480934143
-1.422842025756836,0.12391436845064163,0.37501800060272217
-1.4229977130889893,0.12373015284538269,0.3657360076904297
-1.4231526851654053,0.12355110794305801,0.3564811646938324
-1.4233072996139526,0.1233772337436676,0.3472527861595154
-1.4234619140625,0.12320851534605026,0.33805006742477417
-1.423615574836731,0.12304482609033585,0.32887202501296997
-1.4237689971923828,0.12288621813058853,0.31971803307533264
-1.4239224195480347,0.12273266166448593,0.3105873465538025
-1.4240750074386597,0.12258405983448029,0.3014790117740631
-1.424227237701416,0.12244042009115219,0.2923923432826996
-1.4243791103363037,0.12230172008275986,0.2833266258239746
-1.4245308637619019,0.12216794490814209,0.2742811143398285
-1.4246819019317627,0.12203901261091232,0.2652549743652344
-1.4248331785202026,0.12191499024629593,0.2562476098537445
-1.4249839782714844,0.12179578840732574,0.24725818634033203
-1.425134301185608,0.12168136984109879,0.23828592896461487
-1.4252841472625732,0.12157172709703445,0.2293301522731781
-1.425433874130249,0.12146686762571335,0.2203902006149292
-1.4255836009979248,0.12136677652597427,0.21146535873413086
-1.4257328510284424,0.12127137929201126,0.2025548219680786
-1.42588210105896,0.1211807131767273,0.1936579942703247
-1.4260308742523193,0.1210947260260582,0.18477408587932587
-1.4261797666549683,0.12101343274116516,0.17590248584747314
-1.426328182220459,0.1209367886185646,0.16704243421554565
-1.4264764785766602,0.12086477875709534,0.15819326043128967
-1.4266245365142822,0.12079741060733795,0.14935429394245148
-1.4267723560333252,0.12073463201522827,0.14052480459213257
-1.4269204139709473,0.12067650258541107,0.1317042112350464
-1.4270679950714111,0.12062294781208038,0.12289174646139145
-1.4272152185440063,0.12057394534349442,0.11408674716949463
-1.4273627996444702,0.12052956968545914,0.10528860986232758
-1.427510142326355,0.12048974633216858,0.0964965969324112
-1.4276574850082397,0.12045448273420334,0.08771006762981415
-1.4278045892715454,0.12042377144098282,0.07892834395170212
-1.4279510974884033,0.12039755284786224,0.07015074044466019
-1.4280983209609985,0.12037594616413116,0.0613766573369503
-1.4282450675964355,0.12035884708166122,0.05260538309812546
-1.428391933441162,0.12034628540277481,0.04383626952767372
-1.4285391569137573,0.1203383058309555,0.03506866842508316
-1.4286857843399048,0.12033478915691376,0.02630188874900341
-1.4288325309753418,0.12033582478761673,0.017535293474793434
-1.428979516029358,0.12034140527248383,0.008768218569457531
-1.429126262664795,0.12035150080919266,2.625175596805159e-16
-1.429273247718811,0.12036614120006561,-0.008770020678639412
-1.4294201135635376,0.1203853115439415,-0.017542505636811256
-1.4295669794082642,0.12040900439023972,-0.026318110525608063
-1.4297139644622803,0.12043726444244385,-0.03509750962257385
-1.429861307144165,0.1204700917005539,-0.0438813641667366
-1.4300084114074707,0.12050744146108627,-0.05267032980918884
-1.430155873298645,0.12054938822984695,-0.06146509200334549
-1.4303029775619507,0.12059585750102997,-0.07026627659797668
-1.430450439453125,0.12064692378044128,-0.07907459884881973
-1.4305980205535889,0.1207025870680809,-0.08789072185754776
-1.4307458400726318,0.12076285481452942,-0.09671532362699509
-1.4308937788009644,0.12082772701978683,-0.10554905980825424
-1.4310413599014282,0.12089719623327255,-0.11439260095357895
-1.4311896562576294,0.12097132951021194,-0.1232466846704483
-1.4313379526138306,0.12105011194944382,-0.13211195170879364
-1.4314868450164795,0.12113358080387115,-0.14098913967609406
-1.4316356182098389,0.12122171372175217,-0.14987888932228088
-1.4317846298217773,0.12131454050540924,-0.15878193080425262
-1.431934118270874,0.12141210585832596,-0.1676989644765854
-1.432083249092102,0.12151435762643814,-0.17663061618804932
-1.432233452796936,0.12162143737077713,-0.18557778000831604
-1.4323835372924805,0.12173325568437576,-0.19454100728034973
-1.432533860206604,0.12184986472129822,-0.20352105796337128
-1.4326839447021484,0.1219712570309639,-0.2125186026096344
-1.4328354597091675,0.12209758907556534,-0.2215345799922943
-1.4329863786697388,0.12222870439291,-0.23056946694850922
-1.4331378936767578,0.12236472964286804,-0.23962414264678955
-1.4332900047302246,0.12250570952892303,-0.24869941174983978
-1.4334419965744019,0.1226515993475914,-0.2577958405017853
-1.4335945844650269,0.1228024810552597,-0.26691439747810364
-1.43374764919281,0.12295837700366974,-0.2760557234287262
-1.433901071548462,0.1231193020939827,-0.2852206528186798
-1.3902467489242554,0.21959789097309113,2.5630156993865967
-1.3907798528671265,0.21722890436649323,2.5268802642822266
-1.3912911415100098,0.2149168699979782,2.4914960861206055
-1.391814112663269,0.2126649171113968,2.456895589828491
-1.3922561407089233,0.21045687794685364,2.422889232635498
-1.3927325010299683,0.20830847322940826,2.389655113220215
-1.3932342529296875,0.20621636509895325,2.3571505546569824
-1.3936628103256226,0.20416420698165894,2.325186014175415
-1.394094467163086,0.20216169953346252,2.2938690185546875
-1.394542932510376,0.20020917057991028,2.263200044631958
-1.3949369192123413,0.19829484820365906,2.2330431938171387
-1.395359754562378,0.19642925262451172,2.2035138607025146
-1.39572274684906,0.19459843635559082,2.174453020095825
-1.3961436748504639,0.1928175389766693,2.146027088165283
-1.396544098854065,0.19107431173324585,2.118095874786377
-1.3968760967254639,0.1893610805273056,2.0905728340148926
-1.3972725868225098,0.1876947581768036,2.0636417865753174
-1.397589087486267,0.18605473637580872,2.0370731353759766
-1.3979425430297852,0.18445558845996857,2.0110244750976562
-1.3982645273208618,0.18288719654083252,1.9853830337524414
-1.3986316919326782,0.18135859072208405,1.9602439403533936
-1.3989297151565552,0.17985393106937408,1.935433268547058
-1.3992716073989868,0.17838691174983978,1.9110966920852661
-1.3995651006698608,0.1769448071718216,1.8870950937271118
-1.399847388267517,0.17553158104419708,1.863468885421753
-1.4001538753509521,0.17415082454681396,1.8402540683746338
-1.4004307985305786,0.17279499769210815,1.817368507385254
-1.4007235765457153,0.17146900296211243,1.7948614358901978
-1.4009838104248047,0.17016614973545074,1.7726608514785767
-1.4012526273727417,0.16889075934886932,1.750809669494629
-1.4014854431152344,0.16763678193092346,1.7292436361312866
-1.4017469882965088,0.16641132533550262,1.7080336809158325
-1.4019899368286133,0.16520808637142181,1.6871129274368286
-1.4022494554519653,0.16403058171272278,1.6665157079696655
-1.402474284172058,0.16287225484848022,1.6461727619171143
-1.402672529220581,0.1617335081100464,1.6260873079299927
-1.4029206037521362,0.16062258183956146,1.6063400506973267
-1.4031126499176025,0.15952681005001068,1.5868021249771118
-1.4033318758010864,0.15845517814159393,1.567561388015747
-1.4035463333129883,0.15740351378917694,1.5485748052597046
-1.4037268161773682,0.15636810660362244,1.52980375289917
-1.4039286375045776,0.15535466372966766,1.5113030672073364
-1.404106855392456,0.15435771644115448,1.4930174350738525
-1.4043006896972656,0.15338119864463806,1.4749832153320312
-1.4044805765151978,0.15242139995098114,1.4571629762649536
-1.4046510457992554,0.15147842466831207,1.4395564794540405
-1.4048523902893066,0.15055622160434723,1.4221991300582886
-1.4051071405410767,0.1496567279100418,1.4051071405410767
-1.405390739440918,0.1487768590450287,1.3882489204406738
-1.4056710004806519,0.14791281521320343,1.3715872764587402
-1.405946969985962,0.14706411957740784,1.3551161289215088
-1.4062200784683228,0.14623063802719116,1.3388328552246094
-1.4064908027648926,0.14541204273700714,1.3227330446243286
-1.4067585468292236,0.14460799098014832,1.306811809539795
-1.4070228338241577,0.14381811022758484,1.291064739227295
-1.4072847366333008,0.1430422067642212,1.2754884958267212
-1.4075433015823364,0.14227992296218872,1.2600785493850708
-1.407799482345581,0.1415310502052307,1.2448314428329468
-1.408052682876587,0.1407952606678009,1.2297433614730835
-1.4083036184310913,0.14007236063480377,1.214811086654663
-1.4085516929626465,0.13936203718185425,1.2000304460525513
-1.4087976217269897,0.138664111495018,1.185398817062378
-1.4090405702590942,0.13797825574874878,1.1709119081497192
-1.409281611442566,0.13730432093143463,1.1565674543380737
-1.409519910812378,0.13664205372333527,1.1423617601394653
-1.4097564220428467,0.13599126040935516,1.1282920837402344
-1.4099904298782349,0.13535170257091522,1.114355206489563
-1.410222053527832,0.13472314178943634,1.1005481481552124
-1.4104515314102173,0.13410542905330658,1.0868680477142334
-1.4106793403625488,0.1334983855485916,1.073312759399414
-1.4109052419662476,0.13290183246135712,1.0598793029785156
-1.4111288785934448,0.1323155015707016,1.0465644598007202
-1.4113504886627197,0.13173924386501312,1.0333662033081055
-1.411570429801941,0.13117295503616333,1.0202820301055908
-1.411787748336792,0.13061630725860596,1.007308840751648
-1.412003755569458,0.1300693154335022,0.994445264339447
-1.4122178554534912,0.12953172624111176,0.981688380241394
-1.4124304056167603,0.1290034055709839,0.9690361022949219
-1.4126412868499756,0.12848420441150665,0.9564862251281738
-1.412850260734558,0.12797394394874573,0.9440363645553589
-1.4130573272705078,0.12747247517108917,0.9316843152046204
-1.4132630825042725,0.12697972357273102,0.9194284677505493
-1.413467288017273,0.12649549543857574,0.9072665572166443
-1.4136697053909302,0.1260196715593338,0.8951964974403381
-1.4138712882995605,0.12555216252803802,0.8832167387008667
-1.4140708446502686,0.1250927597284317,0.871324896812439
-1.4142686128616333,0.12464135885238647,0.8595190644264221
-1.4144651889801025,0.12419787794351578,0.8477978110313416
-1.414660930633545,0.12376222759485245,0.8361595273017883
-1.4148550033569336,0.12333423644304276,0.8246020674705505
-1.4150474071502686,0.12291376292705536,0.8131235837936401
-1.4152389764785767,0.12250079959630966,0.8017229437828064
-1.4154282808303833,0.12209508568048477,0.7903977036476135
-1.4156177043914795,0.12169674038887024,0.7791475653648376
-1.4158049821853638,0.12130545824766159,0.7679696679115295
-1.4159914255142212,0.12092124670743942,0.7568631768226624
-1.4161769151687622,0.12054400891065598,0.7458265423774719
-1.41636061668396,0.12017357349395752,0.7348577976226807
-1.4165434837341309,0.11980993300676346,0.7239559888839722
-1.4167253971099854,0.11945296823978424,0.713119626045227
-1.4169062376022339,0.1191026121377945,0.7023472785949707
-1.417086124420166,0.11875876039266586,0.6916375160217285
-1.417264461517334,0.1184212937951088,0.6809887886047363
-1.4174426794052124,0.11809024214744568,0.6704004406929016
-1.4176188707351685,0.1177653819322586,0.6598702669143677
-1.4177948236465454,0.11744676530361176,0.6493977904319763
-1.4179697036743164,0.11713425815105438,0.6389813423156738
-1.4181432723999023,0.11682777106761932,0.6286197304725647
-1.41831636428833,0.11652728170156479,0.618311882019043
-1.418488621711731,0.11623270809650421,0.6080566048622131
-1.4186594486236572,0.11594392359256744,0.597852349281311
-1.4188294410705566,0.11566092073917389,0.5876984000205994
-1.4189993143081665,0.11538369208574295,0.5775937438011169
-1.41916823387146,0.11511209607124329,0.5675370097160339
-1.4193357229232788,0.11484602838754654,0.5575268864631653
-1.4195027351379395,0.1145855262875557,0.5475625991821289
-1.4196693897247314,0.11433052271604538,0.5376432538032532
-1.419834852218628,0.11408090591430664,0.5277674198150635
-1.4200003147125244,0.11383669823408127,0.5179344415664673
-1.4201641082763672,0.11359773576259613,0.5081428289413452
-1.4203277826309204,0.113364078104496,0.4983920454978943
-1.4204906225204468,0.11313561350107193,0.4886808693408966
-1.420652985572815,0.11291232705116272,0.47900843620300293
-1.4208143949508667,0.11269412934780121,0.4693736732006073
-1.4209753274917603,0.1124810129404068,0.45977574586868286
-1.4211359024047852,0.11227293312549591,0.450213760137558
-1.4212957620620728,0.11206982284784317,0.4406866729259491
-1.4214547872543335,0.111871637403965,0.43119359016418457
-1.4216138124465942,0.11167838424444199,0.4217337965965271
-1.42177152633667,0.11148994415998459,0.41230612993240356
-1.4219292402267456,0.11130634695291519,0.4029099643230438
-1.4220857620239258,0.11112748086452484,0.39354413747787476
-1.4222426414489746,0.1109534278512001,0.3842082619667053
-1.4223988056182861,0.11078406870365143,0.3749011754989624
-1.4225544929504395,0.11061937361955643,0.3656221032142639
-1.422709345817566,0.11045929789543152,0.35637015104293823
-1.4228640794754028,0.1103038489818573,0.34714463353157043
-1.4230186939239502,0.11015301197767258,0.33794480562210083
-1.423172116279602,0.1100066602230072,0.3287695646286011
-1.423325538635254,0.10986486077308655,0.31961843371391296
-1.4234789609909058,0.10972757637500763,0.31049060821533203
-1.423631191253662,0.10959470272064209,0.3013850450515747
-1.4237836599349976,0.1094662994146347,0.2923012673854828
-1.4239356517791748,0.1093423068523407,0.28323841094970703
-1.4240872859954834,0.10922269523143768,0.27419570088386536
-1.4242380857467651,0.10910742729902267,0.2651723325252533
-1.424389362335205,0.10899654775857925,0.25616779923439026
-1.4245400428771973,0.10888995975255966,0.24718114733695984
-1.4246903657913208,0.10878767818212509,0.2382117062807083
-1.424839973449707,0.10868963599205017,0.2292586863040924
-1.4249898195266724,0.10859590023756027,0.22032155096530914
-1.4251395463943481,0.10850641131401062,0.21139948070049286
-1.4252886772155762,0.10842112451791763,0.20249173045158386
-1.4254380464553833,0.10834008455276489,0.1935976892709732
-1.4255865812301636,0.10826319456100464,0.18471653759479523
-1.4257351160049438,0.10819049179553986,0.17584764957427979
-1.4258838891983032,0.10812199115753174,0.16699039936065674
-1.4260319471359253,0.10805760324001312,0.15814396739006042
-1.426180124282837,0.10799738019704819,0.1493077576160431
-1.4263275861740112,0.10794124007225037,0.14048101007938385
-1.426476001739502,0.10788930207490921,0.13166320323944092
-1.4266234636306763,0.10784140229225159,0.12285346537828445
-1.426770567893982,0.10779760032892227,0.1140512079000473
-1.4269181489944458,0.10775791853666306,0.10525580495595932
-1.4270654916763306,0.10772232711315155,0.0964665412902832
-1.4272127151489258,0.10769079625606537,0.08768274635076523
-1.427359700202942,0.10766332596540451,0.07890374958515167
-1.4275063276290894,0.10763990879058838,0.07012889534235
-1.427653431892395,0.10762057453393936,0.0613575354218483
-1.4278000593185425,0.10760528594255447,0.052588991820812225
-1.427946925163269,0.10759405791759491,0.04382261261343956
-1.4280941486358643,0.10758691281080246,0.03505774214863777
-1.4282408952713013,0.10758379101753235,0.026293698698282242
-1.4283874034881592,0.10758470743894577,0.01752983033657074
-1.4285343885421753,0.10758969932794571,0.008765487000346184
-1.4286811351776123,0.10759872198104858,2.6243579453132625e-16
-1.4288280010223389,0.10761181265115738,-0.008767289109528065
-1.4289747476577759,0.10762894153594971,-0.017537038773298264
-1.429121494293213,0.10765013098716736,-0.026309911161661148
-1.4292685985565186,0.10767539590597153,-0.03508657217025757
-1.4294157028198242,0.10770473629236221,-0.04386768862605095
-1.4295629262924194,0.10773813724517822,-0.05265391990542412
-1.429709792137146,0.10777559131383896,-0.06144591420888901
-1.4298573732376099,0.10781718045473099,-0.07024438679218292
-1.4300047159194946,0.10786283761262894,-0.0790499672293663
-1.430152416229248,0.10791261494159698,-0.08786334842443466
-1.430299997329712,0.10796647518873215,-0.09668517857789993
-1.430448055267334,0.10802450031042099,-0.10551618784666061
-1.4305957555770874,0.10808660089969635,-0.11435697972774506
-1.4307438135147095,0.10815286636352539,-0.12320828437805176
-1.4308921098709106,0.10822329670190811,-0.13207079470157623
-1.4310410022735596,0.1082979366183281,-0.14094524085521698
-1.431189775466919,0.10837673395872116,-0.14983221888542175
-1.4313386678695679,0.1084597259759903,-0.15873247385025024
-1.431488037109375,0.10854694247245789,-0.16764672100543976
-1.4316370487213135,0.10863835364580154,-0.17657558619976044
-1.431787133216858,0.10873407870531082,-0.18551994860172272
-1.431937336921692,0.10883406549692154,-0.19448040425777435
-1.4320875406265259,0.1089383140206337,-0.20345765352249146
-1.4322378635406494,0.10904686152935028,-0.21245241165161133
-1.4323890209197998,0.10915978252887726,-0.2214655578136444
-1.4325398206710815,0.10927699506282806,-0.23049761354923248
-1.4326913356781006,0.10939861834049225,-0.23954948782920837
-1.4328432083129883,0.10952464491128922,-0.2486218810081482
-1.432995319366455,0.10965508967638016,-0.25771552324295044
-1.4331480264663696,0.10978998243808746,-0.2668312191963196
-1.433301329612732,0.1099293902516365,-0.27596980333328247
-1.4334542751312256,0.11007323116064072,-0.2851317822933197
-1.3904902935028076,0.19371576607227325,2.563464641571045
-1.3910208940505981,0.19162563979625702,2.527318239212036
-1.391532063484192,0.1895860880613327,2.4919273853302
-1.3920550346374512,0.1875995397567749,2.4573209285736084
-1.3924974203109741,0.1856517791748047,2.423309087753296
-1.39297354221344,0.18375656008720398,2.390068769454956
-1.3934752941131592,0.18191102147102356,2.357558488845825
-1.393904447555542,0.18010081350803375,2.325589179992676
-1.394337773323059,0.17833451926708221,2.294269323348999
-1.3947869539260864,0.17661219835281372,2.2635960578918457
-1.3951808214187622,0.17492349445819855,2.233433723449707
-1.3956040143966675,0.17327779531478882,2.203899383544922
-1.3959672451019287,0.17166277766227722,2.1748337745666504
-1.396388053894043,0.17009176313877106,2.146402597427368
-1.3967885971069336,0.16855400800704956,2.118466854095459
-1.397120714187622,0.16704271733760834,2.0909390449523926
-1.3975169658660889,0.16557274758815765,2.064002752304077
-1.397834062576294,0.16412608325481415,2.0374300479888916
-1.3981876373291016,0.16271542012691498,2.0113773345947266
-1.3985097408294678,0.1613318920135498,1.9857312440872192
-1.3988772630691528,0.15998348593711853,1.9605880975723267
-1.3991754055023193,0.15865616500377655,1.9357731342315674
-1.3995178937911987,0.15736210346221924,1.9114329814910889
-1.3998116254806519,0.15609000623226166,1.887427568435669
-1.4000942707061768,0.15484336018562317,1.8637975454330444
-1.4004006385803223,0.15362532436847687,1.840578317642212
-1.4006775617599487,0.15242929756641388,1.8176887035369873
-1.4009705781936646,0.1512596160173416,1.795177936553955
-1.401230812072754,0.15011030435562134,1.7729732990264893
-1.4014995098114014,0.14898520708084106,1.7511181831359863
-1.4017324447631836,0.14787903428077698,1.7295483350753784
-1.4019938707351685,0.1467979997396469,1.7083345651626587
-1.402236819267273,0.14573656022548676,1.6874101161956787
-1.4024964570999146,0.1446978598833084,1.6668092012405396
-1.4027212858200073,0.1436760425567627,1.6464627981185913
-1.4029196500778198,0.14267151057720184,1.6263737678527832
-1.4031676054000854,0.14169150590896606,1.6066229343414307
-1.4033597707748413,0.14072488248348236,1.5870815515518188
-1.4035789966583252,0.13977955281734467,1.5678374767303467
-1.4037933349609375,0.1388518214225769,1.5488471984863281
-1.4039729833602905,0.13793836534023285,1.5300720930099487
-1.4041743278503418,0.13704431056976318,1.51156747341156
-1.4043519496917725,0.1361648291349411,1.4932780265808105
-1.404545783996582,0.13530339300632477,1.4752405881881714
-1.4047253131866455,0.13445667922496796,1.4574168920516968
-1.4048961400985718,0.1336248815059662,1.439807653427124
-1.4050637483596802,0.13280817866325378,1.4224131107330322
-1.4053536653518677,0.13201801478862762,1.4053536653518677
-1.4056371450424194,0.1312418282032013,1.3884923458099365
-1.4059174060821533,0.1304796040058136,1.3718276023864746
-1.406193494796753,0.1297309696674347,1.355353832244873
-1.4064669609069824,0.12899573147296906,1.339067816734314
-1.4067375659942627,0.1282736212015152,1.322965145111084
-1.4070053100585938,0.12756432592868805,1.307041049003601
-1.4072695970535278,0.12686753273010254,1.2912911176681519
-1.407531499862671,0.12618309259414673,1.275712251663208
-1.4077903032302856,0.12551064789295197,1.260299563407898
-1.4080463647842407,0.12485002726316452,1.2450498342514038
-1.4082998037338257,0.1242009624838829,1.2299591302871704
-1.408550500869751,0.1235632449388504,1.2150239944458008
-1.4087989330291748,0.1229366660118103,1.2002410888671875
-1.4090447425842285,0.1223209798336029,1.1856067180633545
-1.4092878103256226,0.1217159703373909,1.1711174249649048
-1.4095284938812256,0.12112145125865936,1.1567702293395996
-1.4097672700881958,0.12053725868463516,1.1425621509552002
-1.4100035429000854,0.1199631541967392,1.1284899711608887
-1.4102376699447632,0.11939898133277893,1.1145505905151367
-1.41046941280365,0.11884450912475586,1.1007411479949951
-1.4106990098953247,0.11829960346221924,1.0870587825775146
-1.4109265804290771,0.11776410043239594,1.0735008716583252
-1.4111526012420654,0.11723784357309341,1.0600650310516357
-1.4113763570785522,0.11672063171863556,1.0467480421066284
-1.4115978479385376,0.11621229350566864,1.033547282218933
-1.4118177890777588,0.1157127320766449,1.020460844039917
-1.4120351076126099,0.11522170156240463,1.0074853897094727
-1.4122511148452759,0.11473916471004486,0.9946194887161255
-1.4124654531478882,0.11426495015621185,0.9818604588508606
-1.4126781225204468,0.11379890143871307,0.9692060351371765
-1.4128888845443726,0.11334088444709778,0.9566538333892822
-1.4130977392196655,0.11289075016975403,0.9442017078399658
-1.4133050441741943,0.11244840919971466,0.9318476915359497
-1.4135109186172485,0.11201373487710953,0.9195896983146667
-1.4137150049209595,0.11158657819032669,0.907425582408905
-1.4139176607131958,0.11116684228181839,0.8953534960746765
-1.414119005203247,0.11075440794229507,0.8833715319633484
-1.4143186807632446,0.11034916341304779,0.8714776039123535
-1.4145164489746094,0.1099509671330452,0.8596696853637695
-1.4147130250930786,0.10955975204706192,0.8479464054107666
-1.414908766746521,0.10917544364929199,0.8363060355186462
-1.4151029586791992,0.10879790037870407,0.8247465491294861
-1.415295124053955,0.10842697322368622,0.8132659792900085
-1.4154871702194214,0.10806269943714142,0.8018635511398315
-1.415676474571228,0.10770480334758759,0.7905362844467163
-1.4158656597137451,0.10735338926315308,0.7792840600013733
-1.416053295135498,0.10700824856758118,0.7681043744087219
-1.4162395000457764,0.10666930675506592,0.7569957971572876
-1.416425108909607,0.10633653402328491,0.7459572553634644
-1.4166088104248047,0.10600975900888443,0.7349865436553955
-1.4167917966842651,0.10568897426128387,0.724082887172699
-1.4169737100601196,0.10537409037351608,0.713244616985321
-1.4171545505523682,0.10506501793861389,0.7024703025817871
-1.4173344373703003,0.10476168990135193,0.6917586922645569
-1.4175128936767578,0.10446400195360184,0.6811081767082214
-1.4176908731460571,0.10417195409536362,0.6705178022384644
-1.4178673028945923,0.10388539731502533,0.6599858999252319
-1.4180433750152588,0.10360433906316757,0.6495116353034973
-1.4182178974151611,0.103328637778759,0.6390932202339172
-1.4183917045593262,0.10305827856063843,0.6287298202514648
-1.418564796447754,0.10279321670532227,0.6184201836585999
-1.4187368154525757,0.10253334045410156,0.6081629991531372
-1.4189077615737915,0.10227860510349274,0.5979570746421814
-1.4190781116485596,0.1020289734005928,0.5878013968467712
-1.4192478656768799,0.10178440809249878,0.5776949524879456
-1.4194167852401733,0.1015448123216629,0.5676363706588745
-1.4195845127105713,0.1013101264834404,0.5576245784759521
-1.4197514057159424,0.10108031332492828,0.5476585626602173
-1.4199179410934448,0.10085535794496536,0.5377373695373535
-1.4200835227966309,0.10063517093658447,0.5278598666191101
-1.4202489852905273,0.10041974484920502,0.5180251598358154
-1.4204126596450806,0.10020893812179565,0.5082317590713501
-1.4205766916275024,0.10000284016132355,0.4984793961048126
-1.4207392930984497,0.09980127960443497,0.4887664020061493
-1.4209016561508179,0.09960431605577469,0.4790923297405243
-1.4210633039474487,0.09941184520721436,0.46945589780807495
-1.4212242364883423,0.09922384470701218,0.4598563015460968
-1.4213849306106567,0.09904029965400696,0.4502926468849182
-1.4215449094772339,0.09886112809181213,0.440763920545578
-1.4217036962509155,0.09868628531694412,0.431269109249115
-1.4218627214431763,0.0985158160328865,0.4218076765537262
-1.4220205545425415,0.09834957867860794,0.41237831115722656
-1.4221782684326172,0.09818761795759201,0.4029805064201355
-1.422334909439087,0.09802984446287155,0.3936130702495575
-1.4224916696548462,0.09787629544734955,0.38427552580833435
-1.4226479530334473,0.09772689640522003,0.3749668598175049
-1.4228034019470215,0.09758159518241882,0.3656860589981079
-1.422958493232727,0.09744040668010712,0.35643255710601807
-1.423113226890564,0.09730328619480133,0.34720543026924133
-1.4232678413391113,0.09717021137475967,0.3380039632320404
-1.4234213829040527,0.09704111516475677,0.3288271427154541
-1.423574686050415,0.09691601991653442,0.31967437267303467
-1.423728108406067,0.09679491817951202,0.3105449378490448
-1.4238805770874023,0.09667771309614182,0.3014378249645233
-1.4240329265594482,0.09656443446874619,0.29235243797302246
-1.4241849184036255,0.09645505994558334,0.28328800201416016
-1.4243366718292236,0.0963495597243309,0.2742437422275543
-1.424487590789795,0.09624787420034409,0.2652187943458557
-1.4246387481689453,0.09615004807710648,0.25621265172958374
-1.4247897863388062,0.09605605155229568,0.24722446501255035
-1.424939751625061,0.09596579521894455,0.2382533997297287
-1.425089716911316,0.09587933123111725,0.22929887473583221
-1.4252394437789917,0.0957966297864914,0.22036013007164001
-1.4253891706466675,0.09571769088506699,0.21143651008605957
-1.425538182258606,0.09564245492219925,0.20252718031406403
-1.425687551498413,0.09557095915079117,0.1936315894126892
-1.4258360862731934,0.09550312161445618,0.18474885821342468
-1.4259848594665527,0.09543900936841965,0.17587845027446747
-1.4261337518692017,0.0953785851597786,0.16701966524124146
-1.4262818098068237,0.09532178938388824,0.1581716686487198
-1.4264297485351562,0.09526864439249039,0.1493338942527771
-1.4265774488449097,0.09521913528442383,0.1405056118965149
-1.4267257452011108,0.09517330676317215,0.1316862553358078
-1.4268732070922852,0.095131054520607,0.12287496775388718
-1.4270204305648804,0.09509241580963135,0.11407118290662766
-1.4271682500839233,0.0950574278831482,0.1052742525935173
-1.427315354347229,0.09502600878477097,0.09648342430591583
-1.4274625778198242,0.09499819576740265,0.08769809454679489
-1.4276098012924194,0.09497398138046265,0.07891757786273956
-1.4277561902999878,0.09495330601930618,0.07014116644859314
-1.427903413772583,0.09493625909090042,0.06136828288435936
-1.4280500411987305,0.09492276608943939,0.052598197013139725
-1.4281970262527466,0.09491287171840668,0.04383029043674469
-1.4283442497253418,0.09490656852722168,0.03506388142704964
-1.4284908771514893,0.09490380436182022,0.02629830129444599
-1.4286376237869263,0.09490461647510529,0.017532899975776672
-1.4287844896316528,0.09490901976823807,0.00876702181994915
-1.4289311170578003,0.09491696953773499,2.624817195989352e-16
-1.429078221321106,0.09492852538824081,-0.008768823929131031
-1.4292248487472534,0.09494363516569138,-0.017540108412504196
-1.42937171459198,0.09496232867240906,-0.026314517483115196
-1.429518699645996,0.09498460590839386,-0.03509271517395973
-1.4296661615371704,0.09501050412654877,-0.043875377625226974
-1.4298131465911865,0.095039963722229,-0.05266313999891281
-1.4299602508544922,0.09507301449775696,-0.06145668029785156
-1.4301074743270874,0.09510967135429382,-0.07025667279958725
-1.4302552938461304,0.09514997899532318,-0.07906381785869598
-1.4304027557373047,0.09519387036561966,-0.08787872642278671
-1.430550456047058,0.09524139016866684,-0.09670211374759674
-1.4306987524032593,0.0952925831079483,-0.10553468018770218
-1.4308463335037231,0.09534735977649689,-0.11437700688838959
-1.4309942722320557,0.09540581703186035,-0.12322986125946045
-1.4311426877975464,0.0954679474234581,-0.13209392130374908
-1.4312914609909058,0.09553378075361252,-0.1409699022769928
-1.4314403533935547,0.09560329467058182,-0.14985845983028412
-1.4315893650054932,0.09567650407552719,-0.15876027941703796
-1.4317386150360107,0.09575343877077103,-0.16767607629299164
-1.4318875074386597,0.09583406895399094,-0.17660649120807648
-1.4320378303527832,0.09591852128505707,-0.1855524331331253
-1.4321881532669067,0.09600672125816345,-0.1945144534111023
-1.4323381185531616,0.09609867632389069,-0.20349325239658356
-1.4324885606765747,0.09619443118572235,-0.21248959004878998
-1.4326398372650146,0.09629404544830322,-0.2215043306350708
-1.432790994644165,0.09639747440814972,-0.230538010597229
-1.4329421520233154,0.09650473296642303,-0.23959141969680786
-1.4330941438674927,0.09661591053009033,-0.24866542220115662
-1.43324613571167,0.09673096984624863,-0.2577606439590454
-1.433398962020874,0.09684998542070389,-0.2668779492378235
-1.4335522651672363,0.09697294980287552,-0.2760181128978729
-1.4337055683135986,0.09709986299276352,-0.28518176078796387
-1.3901562690734863,0.16778531670570374,2.5628488063812256
-1.3906826972961426,0.1659744828939438,2.5267038345336914
-1.3911904096603394,0.1642075479030609,2.4913156032562256
-1.391713261604309,0.16248691082000732,2.4567174911499023
-1.392155408859253,0.16079989075660706,2.4227139949798584
-1.3926315307617188,0.1591583788394928,2.389482021331787
-1.3931337594985962,0.15755996108055115,2.356980562210083
-1.3935648202896118,0.1559922844171524,2.3250224590301514
-1.3939999341964722,0.15446265041828156,2.293713331222534
-1.3944498300552368,0.15297096967697144,2.2630488872528076
-1.394843339920044,0.15150828659534454,2.232893466949463
-1.3952662944793701,0.15008287131786346,2.203366279602051
-1.3956294059753418,0.14868402481079102,2.174307346343994
-1.3960503339767456,0.147323340177536,2.145883560180664
-1.3964509963989258,0.14599144458770752,2.117954730987549
-1.3967829942703247,0.14468245208263397,2.0904335975646973
-1.397179365158081,0.14340928196907043,2.063504219055176
-1.3974961042404175,0.1421562284231186,2.0369374752044678
-1.397849678993225,0.14093439280986786,2.0108909606933594
-1.3981716632843018,0.13973607122898102,1.9852511882781982
-1.3985390663146973,0.13856814801692963,1.9601140022277832
-1.398837685585022,0.13741856813430786,1.9353059530258179
-1.3991808891296387,0.136297807097435,1.9109727144241333
-1.3994756937026978,0.13519608974456787,1.8869744539260864
-1.3997594118118286,0.13411644101142883,1.8633519411087036
-1.4000658988952637,0.1330614686012268,1.8401384353637695
-1.4003424644470215,0.13202551007270813,1.817253828048706
-1.4006352424621582,0.13101236522197723,1.7947481870651245
-1.4008952379226685,0.13001687824726105,1.7725486755371094
-1.401163935661316,0.12904240190982819,1.7506989240646362
-1.4013967514038086,0.12808428704738617,1.7291340827941895
-1.401658058166504,0.12714795768260956,1.7079253196716309
-1.4019010066986084,0.12622860074043274,1.6870059967041016
-1.402160406112671,0.125328928232193,1.6664098501205444
-1.4023851156234741,0.12444387376308441,1.6460680961608887
-1.4025835990905762,0.12357382476329803,1.6259840726852417
-1.4028311967849731,0.1227249875664711,1.606237769126892
-1.4030234813690186,0.12188777327537537,1.5867012739181519
-1.403242588043213,0.12106896191835403,1.567461609840393
-1.4034568071365356,0.1202654168009758,1.5484758615493774
-1.4036356210708618,0.11947416514158249,1.5297044515609741
-1.4038363695144653,0.11869973689317703,1.511203646659851
-1.4040131568908691,0.11793791502714157,1.492917776107788
-1.4042059183120728,0.11719170212745667,1.4748836755752563
-1.4043852090835571,0.11645831167697906,1.4570640325546265
-1.4045560359954834,0.11573787033557892,1.4394590854644775
-1.4047571420669556,0.11503323167562485,1.422102689743042
-1.405014991760254,0.1143462210893631,1.405014991760254
-1.4052985906600952,0.11367395520210266,1.3881579637527466
-1.40557861328125,0.11301375180482864,1.3714970350265503
-1.40585458278656,0.11236531287431717,1.355027198791504
-1.406127691268921,0.1117284744977951,1.338744878768921
-1.4063984155654907,0.11110302805900574,1.322646141052246
-1.4066659212112427,0.11048867553472519,1.3067258596420288
-1.4069303274154663,0.10988516360521317,1.2909798622131348
-1.4071921110153198,0.10929233580827713,1.2754045724868774
-1.4074506759643555,0.1087098941206932,1.259995460510254
-1.4077069759368896,0.10813771933317184,1.244749665260315
-1.4079601764678955,0.10757554322481155,1.229662537574768
-1.4082108736038208,0.10702318698167801,1.2147310972213745
-1.4084590673446655,0.10648047178983688,1.1999515295028687
-1.4087047576904297,0.10594719648361206,1.1853206157684326
-1.4089477062225342,0.10542316734790802,1.1708347797393799
-1.4091886281967163,0.10490825027227402,1.1564912796020508
-1.4094271659851074,0.10440223664045334,1.1422865390777588
-1.4096636772155762,0.10390500724315643,1.1282178163528442
-1.409897804260254,0.10341635346412659,1.1142820119857788
-1.4101293087005615,0.10293609648942947,1.1004756689071655
-1.4103586673736572,0.10246412456035614,1.086796522140503
-1.4105862379074097,0.10200029611587524,1.073241949081421
-1.410812258720398,0.10154449194669724,1.0598093271255493
-1.4110357761383057,0.1010964959859848,1.0464954376220703
-1.411257266998291,0.10065621137619019,1.0332980155944824
-1.4114770889282227,0.10022351145744324,1.020214557647705
-1.4116945266723633,0.09979822486639023,1.0072424411773682
-1.4119104146957397,0.09938027709722519,0.9943795204162598
-1.412124752998352,0.09896953403949738,0.9816235899925232
-1.4123371839523315,0.09856586903333664,0.9689721465110779
-1.4125479459762573,0.09816916286945343,0.9564230442047119
-1.4127565622329712,0.097779281437397,0.9439737796783447
-1.4129637479782104,0.09739614278078079,0.9316226840019226
-1.4131700992584229,0.09701967984437943,0.9193679690361023
-1.4133737087249756,0.096649669110775,0.9072065353393555
-1.4135764837265015,0.09628613293170929,0.8951374292373657
-1.4137778282165527,0.09592891484498978,0.8831583857536316
-1.4139773845672607,0.0955779105424881,0.8712673187255859
-1.4141751527786255,0.0952330157160759,0.8594622611999512
-1.4143717288970947,0.0948941707611084,0.8477417826652527
-1.4145673513412476,0.09456130862236023,0.8361042737960815
-1.4147611856460571,0.09423428028821945,0.8245474100112915
-1.4149537086486816,0.09391302615404129,0.813069760799408
-1.4151453971862793,0.09359750151634216,0.8016699552536011
-1.4153345823287964,0.09328751266002655,0.7903454303741455
-1.4155237674713135,0.09298313409090042,0.7790958881378174
-1.4157112836837769,0.09268418699502945,0.7679188847541809
-1.4158974885940552,0.09239061176776886,0.7568129301071167
-1.4160830974578857,0.09210239350795746,0.7457771301269531
-1.4162667989730835,0.09181936085224152,0.7348091006278992
-1.4164496660232544,0.09154151380062103,0.723908007144928
-1.4166314601898193,0.09126877784729004,0.7130723595619202
-1.4168124198913574,0.09100108593702316,0.7023007273674011
-1.4169920682907104,0.09073834866285324,0.6915916204452515
-1.417170763015747,0.09048052877187729,0.6809437870979309
-1.4173485040664673,0.09022755920886993,0.6703559160232544
-1.417524814605713,0.08997935801744461,0.6598265171051025
-1.4177006483078003,0.08973591029644012,0.6493546366691589
-1.4178756475448608,0.0894971415400505,0.6389389634132385
-1.4180490970611572,0.0892629623413086,0.6285779476165771
-1.418222188949585,0.08903337270021439,0.6182708144187927
-1.4183940887451172,0.08880828320980072,0.6080160737037659
-1.4185651540756226,0.08858765661716461,0.5978126525878906
-1.4187352657318115,0.08837143331766129,0.5876594185829163
-1.418905258178711,0.08815961331129074,0.5775554776191711
-1.4190740585327148,0.08795209228992462,0.5674993395805359
-1.4192415475845337,0.08774881064891815,0.5574898719787598
-1.4194085597991943,0.08754976838827133,0.5475262999534607
-1.4195750951766968,0.08735492080450058,0.5376075506210327
-1.4197406768798828,0.08716420829296112,0.5277324318885803
-1.4199059009552002,0.08697761595249176,0.5179000496864319
-1.4200695753097534,0.08679503202438354,0.5081090331077576
-1.4202334880828857,0.08661651611328125,0.49835899472236633
-1.4203962087631226,0.08644194900989532,0.4886484146118164
-1.4205584526062012,0.08627133816480637,0.47897660732269287
-1.420719861984253,0.0861046239733696,0.4693424701690674
-1.4208810329437256,0.08594179898500443,0.45974522829055786
-1.421041488647461,0.08578281104564667,0.45018383860588074
-1.421201229095459,0.08562762290239334,0.440657377243042
-1.4213602542877197,0.08547619730234146,0.4311649203300476
-1.4215192794799805,0.08532854169607162,0.42170578241348267
-1.4216769933700562,0.08518455922603607,0.4122787117958069
-1.421834945678711,0.08504429459571838,0.4028832018375397
-1.421991229057312,0.08490761369466782,0.39351797103881836
-1.4221479892730713,0.08477462083101273,0.3841826915740967
-1.4223040342330933,0.08464521169662476,0.3748762011528015
-1.4224597215652466,0.08451937884092331,0.36559775471687317
-1.4226146936416626,0.0843970775604248,0.3563464283943176
-1.42276930809021,0.08427830785512924,0.34712153673171997
-1.4229240417480469,0.08416306227445602,0.3379223048686981
-1.4230774641036987,0.08405125141143799,0.3287477195262909
-1.423230767250061,0.08394289016723633,0.31959715485572815
-1.4233840703964233,0.08383799344301224,0.3104698956012726
-1.4235365390777588,0.08373647928237915,0.3013649880886078
-1.4236890077590942,0.08363838493824005,0.2922818660736084
-1.4238407611846924,0.08354362845420837,0.2832195460796356
-1.4239925146102905,0.0834522545337677,0.2741774618625641
-1.4241433143615723,0.08336417376995087,0.2651546895503998
-1.4242944717407227,0.08327945321798325,0.2561507225036621
-1.424445390701294,0.08319803327322006,0.24716472625732422
-1.424595594406128,0.08311986923217773,0.23819586634635925
-1.4247453212738037,0.08304497599601746,0.2292434722185135
-1.4248950481414795,0.08297334611415863,0.2203069031238556
-1.4250446557998657,0.08290497213602066,0.21138541400432587
-1.4251937866210938,0.08283980190753937,0.20247824490070343
-1.4253430366516113,0.08277787268161774,0.19358478486537933
-1.4254916906356812,0.08271913230419159,0.1847042292356491
-1.425640344619751,0.08266359567642212,0.1758359670639038
-1.4257887601852417,0.08261123299598694,0.16697925329208374
-1.4259369373321533,0.08256204426288605,0.15813343226909637
-1.426085114479065,0.08251602947711945,0.1492978036403656
-1.426232933998108,0.08247315883636475,0.1404716819524765
-1.42638099193573,0.08243345469236374,0.13165442645549774
-1.4265283346176147,0.08239685744047165,0.12284527719020844
-1.426675796508789,0.08236340433359146,0.11404363065958023
-1.4268231391906738,0.08233307301998138,0.10524879395961761
-1.4269706010818481,0.08230588585138321,0.09646012634038925
-1.4271175861358643,0.08228178322315216,0.08767690509557724
-1.42726469039917,0.08226080238819122,0.07889849692583084
-1.4274110794067383,0.08224289119243622,0.07012420892715454
-1.4275583028793335,0.08222813904285431,0.06135345250368118
-1.427704930305481,0.08221644908189774,0.05258548632264137
-1.427851915359497,0.08220788091421127,0.043819695711135864
-1.4279989004135132,0.08220241218805313,0.035055406391620636
-1.4281458854675293,0.08220003545284271,0.026291949674487114
-1.4282923936843872,0.08220073580741882,0.01752866432070732
-1.4284393787384033,0.08220455050468445,0.008764903992414474
-1.4285860061645508,0.0822114422917366,2.6241832447678913e-16
-1.4287327527999878,0.08222143352031708,-0.008766704238951206
-1.4288794994354248,0.08223452419042587,-0.017535869032144547
-1.429026484489441,0.08225072175264359,-0.02630816213786602
