-1.4093148708343506,-0.26528868079185486,1.1279387474060059
-1.4095486402511597,-0.264041006565094,1.1140060424804688
-1.4097800254821777,-0.26281481981277466,1.1002031564712524
-1.4100092649459839,-0.2616097629070282,1.0865273475646973
-1.4102367162704468,-0.26042550802230835,1.072975993156433
-1.4104623794555664,-0.25926169753074646,1.0595464706420898
-1.410685658454895,-0.2581178843975067,1.0462357997894287
-1.4109067916870117,-0.25699368119239807,1.0330413579940796
-1.4111264944076538,-0.2558889091014862,1.0199612379074097
-1.4113438129425049,-0.2548030614852905,1.0069921016693115
-1.4115593433380127,-0.25373589992523193,0.9941322803497314
-1.4117733240127563,-0.2526871860027313,0.9813793301582336
-1.4119857549667358,-0.25165653228759766,0.9687311053276062
-1.4121965169906616,-0.25064367055892944,0.9561850428581238
-1.4124048948287964,-0.24964818358421326,0.9437387585639954
-1.412611722946167,-0.24866992235183716,0.9313905239105225
-1.4128174781799316,-0.24770867824554443,0.9191386103630066
-1.4130213260650635,-0.24676401913166046,0.9069803357124329
-1.4132237434387207,-0.2458357810974121,0.8949140906333923
-1.4134248495101929,-0.24492372572422028,0.8829379677772522
-1.4136244058609009,-0.2440275251865387,0.8710497617721558
-1.4138215780258179,-0.2431468665599823,0.8592473864555359
-1.4140182733535767,-0.2422817498445511,0.8475298881530762
-1.41421377658844,-0.24143189191818237,0.835895299911499
-1.414407730102539,-0.2405969351530075,0.824341356754303
-1.4145996570587158,-0.23977665603160858,0.8128663301467896
-1.414791464805603,-0.23897108435630798,0.8014694452285767
-1.4149806499481201,-0.23817963898181915,0.7901477813720703
-1.415169596672058,-0.23740246891975403,0.7789009213447571
-1.4153567552566528,-0.23663915693759918,0.7677265405654907
-1.4155429601669312,-0.23588962852954865,0.7566234469413757
-1.4157285690307617,-0.23515374958515167,0.7455903887748718
-1.4159120321273804,-0.23443107306957245,0.7346250414848328
-1.4160947799682617,-0.23372167348861694,0.7237266302108765
-1.4162763357162476,-0.23302529752254486,0.7128936052322388
-1.416457176208496,-0.23234182596206665,0.7021246552467346
-1.4166368246078491,-0.2316710203886032,0.6914182305335999
-1.4168150424957275,-0.23101270198822021,0.6807728409767151
-1.4169931411743164,-0.23036688566207886,0.6701878309249878
-1.4171690940856934,-0.22973312437534332,0.6596608757972717
-1.4173449277877808,-0.22911156713962555,0.649191677570343
-1.4175195693969727,-0.22850190103054047,0.6387785077095032
-1.417693018913269,-0.22790400683879852,0.6284201145172119
-1.4178658723831177,-0.22731779515743256,0.6181154847145081
-1.4180376529693604,-0.22674308717250824,0.6078632473945618
-1.4182088375091553,-0.2261798083782196,0.5976625084877014
-1.4183789491653442,-0.22562776505947113,0.5875117778778076
-1.418548583984375,-0.22508689761161804,0.5774102807044983
-1.4187172651290894,-0.2245570570230484,0.5673566460609436
-1.4188847541809082,-0.2240380346775055,0.5573497414588928
-1.4190516471862793,-0.22352983057498932,0.5473886132240295
-1.4192180633544922,-0.2230323702096939,0.5374723672866821
-1.4193834066390991,-0.22254540026187897,0.527599573135376
-1.419548749923706,-0.22206902503967285,0.5177698135375977
-1.4197123050689697,-0.22160282731056213,0.5079811811447144
-1.4198758602142334,-0.22114700078964233,0.49823349714279175
-1.4200387001037598,-0.22070132195949554,0.488525390625
-1.4202008247375488,-0.2202657163143158,0.47885599732398987
-1.4203619956970215,-0.21984001994132996,0.469224214553833
-1.4205230474472046,-0.2194243222475052,0.4596294164657593
-1.4206833839416504,-0.2190183699131012,0.4500703811645508
-1.420843243598938,-0.21862217783927917,0.4405463933944702
-1.42100191116333,-0.21823550760746002,0.4310562312602997
-1.4211609363555908,-0.21785850822925568,0.42159944772720337
-1.421318531036377,-0.21749089658260345,0.4121747314929962
-1.4214762449264526,-0.21713274717330933,0.40278157591819763
-1.4216326475143433,-0.216783806681633,0.39341872930526733
-1.421789526939392,-0.21644428372383118,0.38408583402633667
-1.4219456911087036,-0.2161138951778412,0.3747817575931549
-1.4221010208129883,-0.21579258143901825,0.36550554633140564
-1.4222557544708252,-0.21548029780387878,0.35625651478767395
-1.422410488128662,-0.21517707407474518,0.3470339775085449
-1.42256498336792,-0.21488280594348907,0.3378370702266693
-1.4227182865142822,-0.21459729969501495,0.32866472005844116
-1.4228715896606445,-0.21432067453861237,0.31951650977134705
-1.4230250120162964,-0.21405287086963654,0.3103915750980377
-1.4231771230697632,-0.21379365026950836,0.301288902759552
-1.423329472541809,-0.21354316174983978,0.2922080159187317
-1.4234811067581177,-0.21330124139785767,0.28314799070358276
-1.4236329793930054,-0.2130679488182068,0.27410823106765747
-1.423783779144287,-0.21284307539463043,0.265087753534317
-1.4239349365234375,-0.21262675523757935,0.2560860514640808
-1.4240856170654297,-0.21241885423660278,0.247102290391922
-1.4242357015609741,-0.21221929788589478,0.2381356805562973
-1.4243851900100708,-0.21202804148197174,0.22918552160263062
-1.4245349168777466,-0.21184515953063965,0.220251202583313
-1.4246845245361328,-0.21167059242725372,0.21133199334144592
-1.4248335361480713,-0.21150420606136322,0.20242707431316376
-1.4249829053878784,-0.2113461196422577,0.19353587925434113
-1.4251314401626587,-0.21119612455368042,0.18465755879878998
-1.4252798557281494,-0.21105429530143738,0.17579150199890137
-1.4254285097122192,-0.21092066168785095,0.16693706810474396
-1.4255766868591309,-0.2107950747013092,0.15809348225593567
-1.4257245063781738,-0.21067753434181213,0.14926005899906158
-1.4258722066879272,-0.21056805551052094,0.14043615758419037
-1.4260203838348389,-0.21046671271324158,0.13162113726139069
-1.4261677265167236,-0.21037328243255615,0.12281422317028046
-1.4263148307800293,-0.21028782427310944,0.11401478201150894
-1.4264625310897827,-0.21021045744419098,0.1052221953868866
-1.4266095161437988,-0.21014095842838287,0.09643571823835373
-1.426756739616394,-0.21007946133613586,0.0876547321677208
-1.4269037246704102,-0.21002589166164398,0.07887854427099228
-1.4270503520965576,-0.20998018980026245,0.07010648399591446
-1.4271974563598633,-0.2099425047636032,0.06133794039487839
-1.4273439645767212,-0.20991265773773193,0.05257219448685646
-1.4274908304214478,-0.20989076793193817,0.04380861669778824
-1.4276378154754639,-0.20987682044506073,0.0350465402007103
-1.4277845621109009,-0.20987072587013245,0.02628529816865921
-1.4279314279556274,-0.2098725587129593,0.01752423495054245
-1.428078055381775,-0.20988225936889648,0.00876268744468689
-1.4282246828079224,-0.20989985764026642,2.6235196473932767e-16
-1.428371548652649,-0.20992538332939148,-0.008764487691223621
-1.428518533706665,-0.20995883643627167,-0.017531439661979675
-1.428665041923523,-0.210000142455101,-0.026301506906747818
-1.4288119077682495,-0.21004942059516907,-0.035075366497039795
-1.4289593696594238,-0.21010670065879822,-0.04385368153452873
-1.4291062355041504,-0.21017183363437653,-0.05263710021972656
-1.4292532205581665,-0.21024490892887115,-0.06142629310488701
-1.4294005632400513,-0.21032601594924927,-0.07022194564342499
-1.4295481443405151,-0.21041510999202728,-0.07902472466230392
-1.429695725440979,-0.2105122059583664,-0.08783528953790665
-1.4298431873321533,-0.2106172889471054,-0.09665431082248688
-1.429991364479065,-0.21073047816753387,-0.10548249632120132
-1.4301390647888184,-0.21085165441036224,-0.11432047933340073
-1.43028724193573,-0.21098093688488007,-0.12316896766424179
-1.4304354190826416,-0.21111832559108734,-0.13202865421772003
-1.430584192276001,-0.21126390993595123,-0.14090023934841156
-1.4307332038879395,-0.21141766011714935,-0.1497844159603119
-1.4308819770812988,-0.21157953143119812,-0.15868182480335236
-1.431031346321106,-0.21174970269203186,-0.16759324073791504
-1.4311802387237549,-0.21192800998687744,-0.1765192449092865
-1.4313305616378784,-0.21211479604244232,-0.18546079099178314
-1.4314802885055542,-0.21230977773666382,-0.19441832602024078
-1.4316307306289673,-0.21251317858695984,-0.20339274406433105
-1.4317809343338013,-0.21272492408752441,-0.2123846411705017
-1.4319322109222412,-0.21294522285461426,-0.22139492630958557
-1.4320828914642334,-0.21317388117313385,-0.23042409121990204
-1.4322341680526733,-0.2134111076593399,-0.23947304487228394
-1.432386040687561,-0.2136569619178772,-0.24854256212711334
-1.4325381517410278,-0.21391142904758453,-0.2576332986354828
-1.432690978050232,-0.21417461335659027,-0.2667461335659027
-1.4328440427780151,-0.2144465297460556,-0.27588173747062683
-1.4329973459243774,-0.21472719311714172,-0.28504088521003723
-1.4331510066986084,-0.2150166928768158,-0.2942243814468384
-2.61177921295166,-0.3923487663269043,-0.5529178977012634
-2.2999463081359863,-0.4999505281448364,-2.5065178871154785
-2.2831149101257324,-0.49964234232902527,-2.519029140472412
-2.265627384185791,-0.4992043077945709,-2.5307700634002686
-2.2475059032440186,-0.49863845109939575,-2.5417397022247314
-2.2301197052001953,-0.498247891664505,-2.553480625152588
-2.2121105194091797,-0.4977305233478546,-2.564450740814209
-2.194157123565674,-0.49723729491233826,-2.575421094894409
-2.175607442855835,-0.49661964178085327,-2.5856199264526367
-2.1577656269073486,-0.49617448449134827,-2.596590757369995
-2.1393373012542725,-0.4956057071685791,-2.606790065765381
-2.12096905708313,-0.49506109952926636,-2.6169888973236084
-2.1026594638824463,-0.49454084038734436,-2.627189874649048
-2.0837926864624023,-0.49389922618865967,-2.6366167068481445
-2.064992904663086,-0.4932823181152344,-2.6460440158843994
-2.0477890968322754,-0.49305856227874756,-2.657458782196045
-2.0296378135681152,-0.492620050907135,-2.6675989627838135
-2.0122134685516357,-0.49237096309661865,-2.67864727973938
-1.9948145151138306,-0.4921426773071289,-2.6896960735321045
-1.9767731428146362,-0.4917694926261902,-2.699836492538452
-1.958770751953125,-0.49141842126846313,-2.7099788188934326
-1.9408032894134521,-0.4910888373851776,-2.720121145248413
-1.9228683710098267,-0.4907805025577545,-2.7302632331848145
-1.9043331146240234,-0.49033084511756897,-2.7394981384277344
-1.8858431577682495,-0.4899035394191742,-2.7487337589263916
-1.8680100440979004,-0.48965930938720703,-2.7588772773742676
-1.8495938777923584,-0.4892749786376953,-2.768112897872925
-1.8306164741516113,-0.4887522757053375,-2.776440382003784
-1.8122813701629639,-0.48841142654418945,-2.7856764793395996
-1.7939798831939697,-0.4880917966365814,-2.7949137687683105
-1.7751332521438599,-0.4876348376274109,-2.803241729736328
-1.756331205368042,-0.4871997833251953,-2.811570405960083
-1.737570881843567,-0.4867863655090332,-2.819899320602417
-1.718850016593933,-0.4863942265510559,-2.8282275199890137
-1.7001667022705078,-0.4860233962535858,-2.8365566730499268
-1.6809812784194946,-0.48551833629608154,-2.8439769744873047
-1.6618437767028809,-0.48503515124320984,-2.8513972759246826
-1.6432744264602661,-0.48472774028778076,-2.859726667404175
-1.6242185831069946,-0.4842870533466339,-2.8671467304229736
-1.6052041053771973,-0.4838676154613495,-2.8745670318603516
-1.5862292051315308,-0.4834693372249603,-2.881988286972046
-1.567081332206726,-0.48302721977233887,-2.8890223503112793
-1.5489259958267212,-0.48290276527404785,-2.897836685180664
-1.5302109718322754,-0.4826173186302185,-2.9055676460266113
-1.5115222930908203,-0.4823519289493561,-2.913299322128296
-1.493411898612976,-0.4822852909564972,-2.9221153259277344
-1.4747611284255981,-0.4820588231086731,-2.929847240447998
-1.4555935859680176,-0.4816741347312927,-2.936495780944824
-1.4369902610778809,-0.4814871549606323,-2.9442286491394043
-1.4184035062789917,-0.48131945729255676,-2.9519617557525635
-1.3993184566497803,-0.48099443316459656,-2.9586102962493896
-1.3807674646377563,-0.4808652698993683,-2.966343641281128
-1.361730933189392,-0.4805796146392822,-2.9729928970336914
-1.3427197933197021,-0.48031365871429443,-2.979642629623413
-1.3237323760986328,-0.48006725311279297,-2.9862923622131348
-1.3047665357589722,-0.4798402190208435,-2.9929423332214355
-1.285820722579956,-0.47963249683380127,-2.9995927810668945
-1.2668927907943726,-0.4794437885284424,-3.0062427520751953
-1.2475320100784302,-0.47910162806510925,-3.0118088722229004
-1.2286428213119507,-0.47895127534866333,-3.0184593200683594
-1.2093324661254883,-0.47864800691604614,-3.0240252017974854
-1.1900485754013062,-0.4783641993999481,-3.0295910835266113
-1.170789361000061,-0.4780997335910797,-3.0351572036743164
-1.1515530347824097,-0.47785452008247375,-3.0407235622406006
-1.1323376893997192,-0.4776283800601959,-3.0462899208068848
-1.1131415367126465,-0.47742119431495667,-3.0518558025360107
-1.0939632654190063,-0.4772329330444336,-3.057422637939453
-1.0744199752807617,-0.4768943786621094,-3.061903715133667
-1.0552793741226196,-0.47674399614334106,-3.0674710273742676
-1.0357849597930908,-0.47644367814064026,-3.0719518661499023
-1.0166749954223633,-0.47633060812950134,-3.077518939971924
-0.9972227811813354,-0.4760681688785553,-3.082000255584717
-0.9777928590774536,-0.47582465410232544,-3.0864815711975098
-0.9583834409713745,-0.4756000339984894,-3.090963125228882
-0.9389929175376892,-0.4753940999507904,-3.095444679260254
-0.9196193814277649,-0.47520676255226135,-3.099925994873047
-0.9002615809440613,-0.475038081407547,-3.104407787322998
-0.8806098103523254,-0.47472187876701355,-3.1078033447265625
-0.8612852692604065,-0.4745902717113495,-3.1122851371765137
-0.8416778445243835,-0.47431156039237976,-3.115680456161499
-0.8223801851272583,-0.4742167890071869,-3.1201627254486084
-0.8028107285499573,-0.4739753007888794,-3.123558521270752
-0.7832611799240112,-0.47375231981277466,-3.1269538402557373
-0.763729989528656,-0.4735478162765503,-3.1303491592407227
-0.744215726852417,-0.4733618199825287,-3.1337451934814453
-0.7247164845466614,-0.47319406270980835,-3.1371405124664307
-0.7052309513092041,-0.47304463386535645,-3.140535831451416
-0.6857573986053467,-0.4729134142398834,-3.1439316272735596
-0.6662943959236145,-0.4728003442287445,-3.1473276615142822
-0.64661705493927,-0.47254225611686707,-3.1496365070343018
-0.6271771192550659,-0.47246548533439636,-3.1530323028564453
-0.6075336337089539,-0.47224393486976624,-3.1553409099578857
-0.5881106853485107,-0.47220319509506226,-3.1587367057800293
-0.5684948563575745,-0.47201797366142273,-3.161045551300049
-0.548893928527832,-0.47185084223747253,-3.163353681564331
-0.5293065905570984,-0.471701979637146,-3.165663003921509
-0.5097309350967407,-0.4715709984302521,-3.16797137260437
-0.490165650844574,-0.4714581370353699,-3.1702804565429688
-0.4706433415412903,-0.47139742970466614,-3.1728198528289795
-0.4511582851409912,-0.47138890624046326,-3.1755902767181396
-0.4314940571784973,-0.4712025225162506,-3.177042245864868
-0.41201555728912354,-0.4712294936180115,-3.17981219291687
-0.39253419637680054,-0.47127434611320496,-3.1825833320617676
-0.3728938400745392,-0.4711416959762573,-3.184035301208496
-0.35326385498046875,-0.4710268974304199,-3.1854870319366455
-0.3337809145450592,-0.4711249768733978,-3.188258409500122
-0.31415900588035583,-0.47104576230049133,-3.1897101402282715
-0.29454305768013,-0.47098442912101746,-3.191162109375
-0.27493152022361755,-0.4709409177303314,-3.1926143169403076
-0.2553228735923767,-0.47091516852378845,-3.1940665245056152
-0.2357155978679657,-0.4709071218967438,-3.1955184936523438
-0.2161083072423935,-0.47091686725616455,-3.1969707012176514
-0.19649942219257355,-0.47094425559043884,-3.19842267036438
-0.17681458592414856,-0.4707951843738556,-3.1985552310943604
-0.15720629692077637,-0.470858097076416,-3.200007677078247
-0.13759200274944305,-0.47093871235847473,-3.2014598846435547
-0.11792163550853729,-0.4708429276943207,-3.2015926837921143
-0.09825852513313293,-0.4707648754119873,-3.2017252445220947
-0.07863359898328781,-0.4708986282348633,-3.2031774520874023
-0.058972448110580444,-0.4708559811115265,-3.2033097743988037
-0.03931412100791931,-0.47083109617233276,-3.203441858291626
-0.019657129421830177,-0.47082391381263733,-3.2035739421844482
0.0,-0.4840298295021057,-3.102511405944824
0.019037779420614243,-0.48405852913856506,-3.1026368141174316
0.03806517273187637,-0.4839355945587158,-3.1016738414764404
0.05710367113351822,-0.4840008616447449,-3.101799964904785
0.07614800333976746,-0.4840843081474304,-3.101925849914551
0.09519963711500168,-0.4841860234737396,-3.1020519733428955
0.11421985179185867,-0.4841358959674835,-3.101088285446167
0.1332368552684784,-0.48410406708717346,-3.100125312805176
0.15230557322502136,-0.48426055908203125,-3.1002511978149414
0.1713271588087082,-0.4842652678489685,-3.0992884635925293
0.190349742770195,-0.48428797721862793,-3.0983242988586426
0.20937490463256836,-0.48432913422584534,-3.0973610877990723
0.22840406000614166,-0.4843885898590088,-3.09639835357666
0.24743853509426117,-0.48446619510650635,-3.0954341888427734
0.26647987961769104,-0.48456212878227234,-3.094470500946045
0.28552958369255066,-0.4846765995025635,-3.0935075283050537
0.30458900332450867,-0.4848093092441559,-3.0925440788269043
0.32354554533958435,-0.48478949069976807,-3.0904905796051025
0.3426221013069153,-0.4849589765071869,-3.089526891708374
0.36171281337738037,-0.48514699935913086,-3.0885634422302246
0.3806847035884857,-0.4851822555065155,-3.086510181427002
0.3996601402759552,-0.4852358400821686,-3.0844569206237793
0.41864049434661865,-0.4853076934814453,-3.0824029445648193
0.4377821087837219,-0.48556971549987793,-3.0814390182495117
0.456783652305603,-0.48567861318588257,-3.079385280609131
0.47579458355903625,-0.48580604791641235,-3.07733154296875
0.49464088678359985,-0.48577961325645447,-3.0741870403289795
0.5136681199073792,-0.4859439432621002,-3.0721328258514404
0.5327092409133911,-0.48612695932388306,-3.0700790882110596
0.5517657995223999,-0.48632872104644775,-3.068025588989258
0.5706360340118408,-0.4863760471343994,-3.064880609512329
0.5897207260131836,-0.4866151213645935,-3.062826156616211
0.6086084246635437,-0.4866996109485626,-3.0596811771392822
0.6275035738945007,-0.4868026077747345,-3.0565359592437744
0.6464077830314636,-0.4869242012500763,-3.0533907413482666
0.6655605435371399,-0.4872387647628784,-3.0513367652893066
0.6844944357872009,-0.4873981177806854,-3.048192262649536
0.7034417390823364,-0.4875761568546295,-3.04504656791687
0.7221449613571167,-0.4875980019569397,-3.040809392929077
0.7411169409751892,-0.4878135919570923,-3.037663698196411
0.7601072788238525,-0.4880482852458954,-3.034518241882324
0.7788367867469788,-0.4881262481212616,-3.0302813053131104
0.7978611588478088,-0.4883989691734314,-3.0271358489990234
0.8166133761405945,-0.4885144829750061,-3.022897958755493
0.8353759050369263,-0.4886488914489746,-3.018660545349121
0.8544594645500183,-0.48897919058799744,-3.015514850616455
0.8732540011405945,-0.4891515374183655,-3.0112764835357666
0.8920637965202332,-0.48934319615364075,-3.0070393085479736
0.910889744758606,-0.489553838968277,-3.002800941467285
0.9293951392173767,-0.4896053075790405,-2.9974706172943115
0.9482515454292297,-0.48985418677330017,-2.993232250213623
0.9671291708946228,-0.4901224374771118,-2.9889934062957764
0.9856691360473633,-0.49023088812828064,-2.9836630821228027
1.004587173461914,-0.4905381202697754,-2.9794249534606934
1.0231552124023438,-0.4906846284866333,-2.974092960357666
1.0417364835739136,-0.49085044860839844,-2.968761920928955
1.0603322982788086,-0.49103543162345886,-2.963430404663086
1.0789443254470825,-0.4912397265434265,-2.9580986499786377
1.09757399559021,-0.4914633333683014,-2.952766180038452
1.1162235736846924,-0.4917066991329193,-2.947434902191162
1.1344724893569946,-0.49178677797317505,-2.941009283065796
1.153158187866211,-0.4920690357685089,-2.9356768131256104
1.171431541442871,-0.4921875298023224,-2.929250955581665
1.1901605129241943,-0.49250927567481995,-2.9239182472229004
1.2084646224975586,-0.4926665127277374,-2.9174916744232178
1.2267829179763794,-0.4928431212902069,-2.911065101623535
1.2451171875,-0.4930392801761627,-2.9046382904052734
1.263776183128357,-0.4933750033378601,-2.898916482925415
1.282214879989624,-0.4936349093914032,-2.8926305770874023
1.301090121269226,-0.4940717816352844,-2.887261390686035
1.3195832967758179,-0.4943721890449524,-2.880974531173706
1.3385308980941772,-0.4948509931564331,-2.875605821609497
1.3570868968963623,-0.49519282579421997,-2.869319200515747
1.3756731748580933,-0.49555522203445435,-2.863032102584839
1.3942922353744507,-0.4959385395050049,-2.8567452430725098
1.4129457473754883,-0.49634289741516113,-2.8504583835601807
1.4311736822128296,-0.496608167886734,-2.8432538509368896
1.4498944282531738,-0.49705442786216736,-2.836965799331665
1.4681793451309204,-0.4973610043525696,-2.8297603130340576
1.4869760274887085,-0.497850239276886,-2.8234732151031494
1.5053263902664185,-0.4981990158557892,-2.816267728805542
1.5237088203430176,-0.49856889247894287,-2.8090620040893555
1.54212486743927,-0.4989599585533142,-2.80185604095459
1.560064435005188,-0.4992085099220276,-2.793731927871704
1.5785472393035889,-0.49964219331741333,-2.7865254878997803
1.596542477607727,-0.49993252754211426,-2.7784008979797363
-1.389745831489563,-0.4496572017669678,2.5250015258789062
-1.3902636766433716,-0.4448736011981964,2.4896562099456787
-1.390792727470398,-0.4402141273021698,2.455092668533325
-1.3912397623062134,-0.43564513325691223,2.4211204051971436
-1.3917198181152344,-0.43119922280311584,2.3879175186157227
-1.3922244310379028,-0.42686954140663147,2.3554422855377197
-1.392656683921814,-0.42262279987335205,2.323507308959961
-1.3930906057357788,-0.4184783399105072,2.292217254638672
-1.3935394287109375,-0.4144367575645447,2.2615714073181152
-1.3939316272735596,-0.41047367453575134,2.2314341068267822
-1.3943535089492798,-0.4066116511821747,2.2019248008728027
-1.3947153091430664,-0.40282154083251953,2.1728835105895996
-1.3951352834701538,-0.39913487434387207,2.144476890563965
-1.3955339193344116,-0.3955259323120117,2.1165637969970703
-1.3958640098571777,-0.39197906851768494,2.0890581607818604
-1.3962581157684326,-0.3885292112827301,2.062143325805664
-1.3965727090835571,-0.38513386249542236,2.0355916023254395
-1.3969236612319946,-0.38182303309440613,2.009558916091919
-1.397243618965149,-0.37857598066329956,1.983933448791504
-1.397608757019043,-0.3754113018512726,1.9588102102279663
-1.3979051113128662,-0.3722962439060211,1.9340157508850098
-1.3982462882995605,-0.36925938725471497,1.9096962213516235
-1.398538589477539,-0.36627402901649475,1.8857109546661377
-1.398820161819458,-0.36334851384162903,1.862101435661316
-1.3991256952285767,-0.36049017310142517,1.8389025926589966
-1.3994020223617554,-0.35768353939056396,1.8160333633422852
-1.399694561958313,-0.3549387454986572,1.7935428619384766
-1.3999556303024292,-0.3522420823574066,1.7713598012924194
-1.4002256393432617,-0.3496024012565613,1.7495266199111938
-1.400459885597229,-0.3470070958137512,1.7279781103134155
-1.4007223844528198,-0.34447067975997925,1.7067850828170776
-1.4009660482406616,-0.3419801890850067,1.6858808994293213
-1.4012264013290405,-0.33954304456710815,1.665299892425537
-1.4014521837234497,-0.33714553713798523,1.6449731588363647
-1.4016510248184204,-0.3347885310649872,1.6249030828475952
-1.401900053024292,-0.3324891924858093,1.60517156124115
-1.4020928144454956,-0.33022114634513855,1.585648775100708
-1.402312994003296,-0.3280031085014343,1.5664232969284058
-1.402527928352356,-0.3258262872695923,1.547451138496399
-1.402707576751709,-0.32368284463882446,1.5286930799484253
-1.4029086828231812,-0.3215848505496979,1.5102050304412842
-1.4030852317810059,-0.31952086091041565,1.4919310808181763
-1.4032771587371826,-0.317499041557312,1.4739080667495728
-1.4034548997879028,-0.3155117928981781,1.4560987949371338
-1.4036237001419067,-0.31355950236320496,1.438503623008728
-1.4038232564926147,-0.31165018677711487,1.4211573600769043
-1.404069185256958,-0.309786319732666,1.404069185256958
-1.404352068901062,-0.30796492099761963,1.3872230052947998
-1.4046318531036377,-0.3061762750148773,1.3705731630325317
-1.404907464981079,-0.30441948771476746,1.354114294052124
-1.4051803350448608,-0.302694171667099,1.3378429412841797
-1.405450463294983,-0.30099964141845703,1.3217545747756958
-1.4057177305221558,-0.29933518171310425,1.3058449029922485
-1.405981421470642,-0.29770007729530334,1.2901090383529663
-1.4062429666519165,-0.29609397053718567,1.2745442390441895
-1.406501293182373,-0.29451602697372437,1.2591456174850464
-1.40675687789917,-0.2929657995700836,1.2439095973968506
-1.4070097208023071,-0.2914426922798157,1.228832483291626
-1.4072600603103638,-0.28994622826576233,1.2139109373092651
-1.4075078964233398,-0.2884758412837982,1.199141263961792
-1.4077532291412354,-0.2870310842990875,1.1845200061798096
-1.4079961776733398,-0.2856113910675049,1.1700440645217896
-1.4082366228103638,-0.2842163145542145,1.1557098627090454
-1.4084745645523071,-0.2828453779220581,1.1415144205093384
-1.4087105989456177,-0.2814982235431671,1.1274551153182983
-1.4089441299438477,-0.28017428517341614,1.1135283708572388
-1.4091756343841553,-0.2788732051849365,1.0997314453125
-1.4094046354293823,-0.2775944769382477,1.0860613584518433
-1.4096318483352661,-0.2763378620147705,1.072515845298767
-1.4098575115203857,-0.27510297298431396,1.0590921640396118
-1.4100806713104248,-0.2738892436027527,1.0457870960235596
-1.4103018045425415,-0.2726963460445404,1.0325983762741089
-1.4105215072631836,-0.2715241014957428,1.0195238590240479
-1.4107385873794556,-0.2703718841075897,1.0065603256225586
-1.410954236984253,-0.2692395746707916,0.9937061071395874
-1.4111679792404175,-0.2681267261505127,0.9809585213661194
-1.411380410194397,-0.2670331299304962,0.9683157205581665
-1.4115909337997437,-0.26595836877822876,0.9557750821113586
-1.4117991924285889,-0.2649020552635193,0.9433340430259705
-1.4120057821273804,-0.2638639807701111,0.9309910535812378
-1.4122117757797241,-0.262844055891037,0.9187445640563965
-1.4124152660369873,-0.26184162497520447,0.9065913558006287
-1.4126176834106445,-0.2608566880226135,0.8945302963256836
-1.4128187894821167,-0.2598889172077179,0.8825593590736389
-1.413017988204956,-0.25893792510032654,0.8706761598587036
-1.4132153987884521,-0.25800347328186035,0.8588789105415344
-1.4134119749069214,-0.25708553194999695,0.8471664786338806
-1.4136072397232056,-0.2561837136745453,0.835536777973175
-1.4138009548187256,-0.2552977204322815,0.8239877223968506
-1.413993000984192,-0.25442731380462646,0.8125177025794983
-1.4141845703125,-0.2535725235939026,0.801125705242157
-1.4143738746643066,-0.2527327239513397,0.7898089289665222
-1.4145628213882446,-0.2519081234931946,0.7785669565200806
-1.414750099182129,-0.2510981857776642,0.7673974633216858
-1.4149359464645386,-0.25030282139778137,0.7562990188598633
-1.4151214361190796,-0.24952195584774017,0.7452706694602966
-1.4153048992156982,-0.24875515699386597,0.7343100309371948
-1.41548752784729,-0.24800240993499756,0.7234163284301758
-1.4156689643859863,-0.24726346135139465,0.7125878930091858
-1.4158495664596558,-0.2465381920337677,0.7018234729766846
-1.4160292148590088,-0.24582642316818237,0.6911216974258423
-1.4162075519561768,-0.24512791633605957,0.68048095703125
-1.416385293006897,-0.24444259703159332,0.6699003577232361
-1.4165613651275635,-0.24377013742923737,0.6593780517578125
-1.4167369604110718,-0.24311058223247528,0.6489132642745972
-1.4169114828109741,-0.24246364831924438,0.6385045051574707
-1.4170849323272705,-0.24182923138141632,0.6281505823135376
-1.4172577857971191,-0.24120722711086273,0.6178504228591919
-1.4174296855926514,-0.2405974268913269,0.6076026558876038
-1.4176007509231567,-0.2399997115135193,0.5974062085151672
-1.4177707433700562,-0.23941393196582794,0.587259829044342
-1.4179402589797974,-0.2388400286436081,0.5771626830101013
-1.4181090593338013,-0.23827782273292542,0.5671133995056152
-1.4182761907577515,-0.23772704601287842,0.5571106672286987
-1.418442964553833,-0.23718780279159546,0.5471538305282593
-1.4186091423034668,-0.2366599142551422,0.5372417569160461
-1.4187748432159424,-0.23614324629306793,0.5273733735084534
-1.4189400672912598,-0.23563775420188904,0.5175477862358093
-1.4191032648086548,-0.2351430356502533,0.5077632665634155
-1.4192668199539185,-0.2346593737602234,0.4980197846889496
-1.4194296598434448,-0.23418647050857544,0.4883158802986145
-1.4195915460586548,-0.2337242215871811,0.4786505699157715
-1.4197527170181274,-0.23327253758907318,0.4690229594707489
-1.419913649559021,-0.2328314185142517,0.4594322443008423
-1.4200741052627563,-0.23240070044994354,0.44987741112709045
-1.420233964920044,-0.23198027908802032,0.4403574466705322
-1.4203925132751465,-0.23156999051570892,0.4308713674545288
-1.4205511808395386,-0.2311699241399765,0.42141857743263245
-1.4207090139389038,-0.23077988624572754,0.4119979739189148
-1.4208663702011108,-0.23039981722831726,0.4026087820529938
-1.4210231304168701,-0.2300296127796173,0.393250048160553
-1.4211795330047607,-0.22966928780078888,0.3839210867881775
-1.4213356971740723,-0.22931872308254242,0.3746209740638733
-1.421491265296936,-0.22897781431674957,0.36534881591796875
-1.421645998954773,-0.22864647209644318,0.356103777885437
-1.4218006134033203,-0.22832471132278442,0.34688517451286316
-1.421954870223999,-0.22801242768764496,0.33769214153289795
-1.4221081733703613,-0.22770948708057404,0.32852378487586975
-1.422261357307434,-0.22741594910621643,0.3193794786930084
-1.4224145412445068,-0.22713176906108856,0.3102584481239319
-1.4225667715072632,-0.22685672342777252,0.30115967988967896
-1.42271888256073,-0.22659091651439667,0.29208266735076904
-1.4228706359863281,-0.22633421421051025,0.2830265462398529
-1.4230223894119263,-0.22608667612075806,0.273990660905838
-1.4231730699539185,-0.22584804892539978,0.26497402787208557
-1.4233241081237793,-0.22561851143836975,0.25597620010375977
-1.423474907875061,-0.22539792954921722,0.24699631333351135
-1.423624873161316,-0.22518616914749146,0.23803354799747467
-1.4237743616104126,-0.22498324513435364,0.2290872484445572
-1.4239240884780884,-0.22478920221328735,0.22015675902366638
-1.4240734577178955,-0.22460393607616425,0.21124134957790375
-1.4242223501205444,-0.22442737221717834,0.202340230345726
-1.424371600151062,-0.2242596298456192,0.193452849984169
-1.4245201349258423,-0.22410047054290771,0.18457834422588348
-1.4246686697006226,-0.22395001351833344,0.17571613192558289
-1.4248169660568237,-0.223808154463768,0.16686545312404633
-1.424965262413025,-0.2236749231815338,0.15802566707134247
-1.4251130819320679,-0.2235502302646637,0.149196058511734
-1.4252606630325317,-0.22343406081199646,0.14037592709064484
-1.4254084825515747,-0.22332645952701569,0.131564661860466
-1.4255561828613281,-0.2232273817062378,0.1227615550160408
-1.4257030487060547,-0.22313667833805084,0.11396586894989014
-1.425850749015808,-0.22305458784103394,0.10517707467079163
-1.4259978532791138,-0.22298087179660797,0.0963943675160408
-1.4261447191238403,-0.22291557490825653,0.08761712908744812
-1.426291584968567,-0.222858726978302,0.07884470373392105
-1.426438331604004,-0.2228102684020996,0.07007642090320587
-1.42658531665802,-0.22277025878429413,0.06131163239479065
-1.426731824874878,-0.2227386087179184,0.05254964530467987
-1.4268784523010254,-0.222715362906456,0.0437898226082325
-1.4270256757736206,-0.2227005809545517,0.0350315123796463
-1.4271721839904785,-0.22269409894943237,0.026274023577570915
-1.4273189306259155,-0.22269605100154877,0.017516719177365303
-1.4274656772613525,-0.22270634770393372,0.008758929558098316
-1.4276121854782104,-0.2227250188589096,2.6223944170624086e-16
-1.4277589321136475,-0.22275210916996002,-0.008760728873312473
-1.427905797958374,-0.22278758883476257,-0.01752392016351223
-1.4280524253845215,-0.22283145785331726,-0.026290230453014374
-1.4281991720199585,-0.22288371622562408,-0.03506032004952431
-1.4283463954925537,-0.2229444831609726,-0.0438348725438118
-1.4284933805465698,-0.22301360964775085,-0.05261452868580818
-1.4286401271820068,-0.22309114038944244,-0.06139994412660599
-1.4287875890731812,-0.2231772094964981,-0.07019183039665222
-1.4289350509643555,-0.22327175736427307,-0.07899083197116852
-1.4290825128555298,-0.22337476909160614,-0.0877976194024086
-1.4292300939559937,-0.2234863042831421,-0.09661286324262619
-1.4293780326843262,-0.22360637784004211,-0.1054372563958168
-1.4295258522033691,-0.22373497486114502,-0.11427144706249237
-1.4296739101409912,-0.22387216985225677,-0.1231161504983902
-1.4298219680786133,-0.2240179479122162,-0.1319720298051834
-1.429970622062683,-0.2241724133491516,-0.1408398151397705
-1.4301193952560425,-0.22433553636074066,-0.14972016215324402
-1.4302681684494019,-0.22450731694698334,-0.15861375629901886
-1.4304176568984985,-0.22468788921833038,-0.16752135753631592
-1.4305665493011475,-0.22487710416316986,-0.17644354701042175
-1.430716633796692,-0.22507527470588684,-0.1853812336921692
-1.4308664798736572,-0.2252822071313858,-0.1943349540233612
-1.4310168027877808,-0.2254980206489563,-0.20330551266670227
-1.4311667680740356,-0.22572268545627594,-0.21229353547096252
-1.431317925453186,-0.22595642507076263,-0.221299946308136
-1.4314683675765991,-0.22619904577732086,-0.23032522201538086
-1.4316198825836182,-0.2264508157968521,-0.23937034606933594
-1.4317717552185059,-0.2267116904258728,-0.24843597412109375
-1.4319238662719727,-0.22698171436786652,-0.2575228214263916
-1.432076334953308,-0.22726094722747803,-0.26663172245025635
-1.4322296380996704,-0.2275495082139969,-0.27576345205307007
-1.4323827028274536,-0.22784730792045593,-0.2849186360836029
-1.4325364828109741,-0.2281545251607895,-0.29409822821617126
-2.1546707153320312,-0.3436053395271301,-0.45614731311798096
-1.6971417665481567,-0.49976053833961487,-2.7168188095092773
-1.6791796684265137,-0.4993857741355896,-2.7251360416412354
-1.6618034839630127,-0.4991985261440277,-2.7343623638153076
-1.6438993215560913,-0.49886617064476013,-2.742680311203003
-1.6260247230529785,-0.4985550045967102,-2.7509984970092773
-1.607648491859436,-0.49810081720352173,-2.758408546447754
-1.5898348093032837,-0.49783214926719666,-2.7667276859283447
-1.5715296268463135,-0.497420996427536,-2.7741377353668213
-1.5537681579589844,-0.49719375371932983,-2.782456636428833
-1.5355265140533447,-0.49682506918907166,-2.789867639541626
-1.5173170566558838,-0.4964774549007416,-2.79727840423584
-1.4991375207901,-0.4961507320404053,-2.8046889305114746
-1.4805076122283936,-0.49568456411361694,-2.8111908435821533
-1.4623899459838867,-0.4953998029232025,-2.8186018466949463
-1.443832516670227,-0.49497631192207336,-2.8251049518585205
-1.4257687330245972,-0.49473267793655396,-2.8325159549713135
-1.4072750806808472,-0.4943509101867676,-2.8390185832977295
-1.3888139724731445,-0.4939899742603302,-2.8455209732055664
-1.3703839778900146,-0.4936498999595642,-2.8520243167877197
-1.3519823551177979,-0.4933302104473114,-2.8585264682769775
-1.3331845998764038,-0.4928744435310364,-2.8641200065612793
-1.314841628074646,-0.49259576201438904,-2.870622158050537
-1.2961126565933228,-0.4921816885471344,-2.876216173171997
-1.27782142162323,-0.49194347858428955,-2.882719039916992
-1.2593055963516235,-0.4916297197341919,-2.8886616230010986
-1.2411147356033325,-0.4914543926715851,-2.895301342010498
-1.222937822341919,-0.4912984371185303,-2.9019410610198975
-1.2047737836837769,-0.4911618232727051,-2.908581256866455
-1.186179280281067,-0.49086177349090576,-2.914137601852417
-1.1680432558059692,-0.49076390266418457,-2.920778512954712
-1.1494886875152588,-0.490503191947937,-2.926335096359253
-1.1313737630844116,-0.49044349789619446,-2.932976007461548
-1.1128520965576172,-0.4902215301990509,-2.9385323524475098
-1.0943487882614136,-0.49001920223236084,-2.944089651107788
-1.0758614540100098,-0.48983606696128845,-2.949646234512329
-1.0573887825012207,-0.4896722733974457,-2.9552035331726074
-1.0389289855957031,-0.4895275831222534,-2.9607608318328857
-1.0204806327819824,-0.48940199613571167,-2.9663186073303223
-1.0016759634017944,-0.4891165792942047,-2.9707908630371094
-0.983252763748169,-0.48902907967567444,-2.976348638534546
-0.9644849300384521,-0.4887824058532715,-2.980821371078491
-0.9457369446754456,-0.4885551631450653,-2.9852945804595947
-0.9273432493209839,-0.4885243773460388,-2.9908528327941895
-0.9086220264434814,-0.4883350729942322,-2.9953253269195557
-0.8899158239364624,-0.4881649315357208,-2.9997987747192383
-0.871222734451294,-0.48801374435424805,-3.004271984100342
-0.8522336483001709,-0.48770540952682495,-3.007659673690796
-0.8335694074630737,-0.4875921607017517,-3.0121326446533203
-0.8149136304855347,-0.4874976873397827,-3.016606092453003
-0.7959787845611572,-0.4872467517852783,-3.019994020462036
-0.777342677116394,-0.48718979954719543,-3.024467945098877
-0.758438229560852,-0.48697665333747864,-3.027855157852173
-0.7395504117012024,-0.4867824912071228,-3.031242847442627
-0.7209357023239136,-0.486781507730484,-3.035717487335205
-0.702069103717804,-0.48662471771240234,-3.039104700088501
-0.6832146644592285,-0.4864868223667145,-3.0424928665161133
-0.6641334295272827,-0.48619401454925537,-3.0447940826416016
-0.6453051567077637,-0.486093670129776,-3.048182487487793
-0.6264842748641968,-0.4860118627548218,-3.0515708923339844
-0.6076690554618835,-0.4859484136104584,-3.0549588203430176
-0.5886491537094116,-0.4857308864593506,-3.057260751724243
-0.5698481202125549,-0.4857044816017151,-3.0606486797332764
-0.5508530735969543,-0.4855242371559143,-3.062950372695923
-0.5318716764450073,-0.48536258935928345,-3.0652518272399902
-0.5129024386405945,-0.4852195978164673,-3.067553758621216
-0.4941188097000122,-0.48526689410209656,-3.0709424018859863
-0.4751625657081604,-0.4851607084274292,-3.0732438564300537
-0.45621415972709656,-0.4850730895996094,-3.0755460262298584
-0.43711742758750916,-0.4848324954509735,-3.0767605304718018
-0.4181867837905884,-0.48478174209594727,-3.0790622234344482
-0.3992593586444855,-0.4847491979598999,-3.0813634395599365
-0.3803338408470154,-0.48473507165908813,-3.083665370941162
-0.3612813949584961,-0.48456838726997375,-3.0848798751831055
-0.34224140644073486,-0.48442018032073975,-3.086094379425049
-0.32332631945610046,-0.4844610393047333,-3.0883967876434326
-0.30430009961128235,-0.48434945940971375,-3.0896108150482178
-0.2852819561958313,-0.48425620794296265,-3.090824604034424
-0.2662705183029175,-0.4841814637184143,-3.0920395851135254
-0.24726422131061554,-0.48412489891052246,-3.0932536125183105
-0.22826167941093445,-0.48408666253089905,-3.094468116760254
-0.20926140248775482,-0.48406657576560974,-3.095682144165039
-0.19026201963424683,-0.4840647876262665,-3.0968964099884033
-0.17126207053661346,-0.48408129811286926,-3.098111152648926
-0.1522066295146942,-0.48394593596458435,-3.0982370376586914
-0.13320790231227875,-0.4839988648891449,-3.0994515419006348
-0.1142043024301529,-0.4840700030326843,-3.1006662845611572
-0.09516098350286484,-0.4839894473552704,-3.100792646408081
-0.07612327486276627,-0.48392707109451294,-3.1009185314178467
-0.057089753448963165,-0.4838829040527344,-3.101043939590454
-0.03807235509157181,-0.48402687907218933,-3.1022589206695557
-0.01903623342514038,-0.4840192198753357,-3.1023848056793213
0.0,-0.4807853698730469,-2.9123685359954834
0.01787099614739418,-0.48081332445144653,-2.912482976913452
0.035744745284318924,-0.4808593988418579,-2.91259765625
0.05362258106470108,-0.48092350363731384,-2.9127116203308105
0.07147911936044693,-0.48082587122917175,-2.9117367267608643
0.0893625020980835,-0.4809262156486511,-2.911850929260254
0.10721388459205627,-0.4808647036552429,-2.9108753204345703
0.12510821223258972,-0.4810013473033905,-2.910989761352539
0.1429598182439804,-0.48097601532936096,-2.9100139141082764
0.1608102172613144,-0.48096877336502075,-2.9090380668640137
0.17866075038909912,-0.48097965121269226,-2.90806245803833
0.196586474776268,-0.4811890423297882,-2.908176898956299
0.21436762809753418,-0.4810557961463928,-2.906111001968384
0.2322266846895218,-0.48112112283706665,-2.9051353931427
0.2500912547111511,-0.4812045693397522,-2.9041595458984375
0.267962783575058,-0.4813063144683838,-2.903183937072754
0.2857351005077362,-0.4812452793121338,-2.9011170864105225
0.30361777544021606,-0.48138341307640076,-2.900141477584839
0.32139045000076294,-0.48135867714881897,-2.8980751037597656
0.33931031823158264,-0.4815625548362732,-2.897274971008301
0.3571332097053528,-0.4816325902938843,-2.895559787750244
0.37496209144592285,-0.4817209541797638,-2.8938446044921875
0.39279821515083313,-0.4818275570869446,-2.8921291828155518
0.410643070936203,-0.4819525182247162,-2.890413999557495
0.42849797010421753,-0.4820958077907562,-2.8886985778808594
0.44636431336402893,-0.48225754499435425,-2.8869833946228027
0.4642435312271118,-0.48243775963783264,-2.885267972946167
0.48198401927948,-0.4824833571910858,-2.8826375007629395
0.4998874068260193,-0.48270055651664734,-2.8809220790863037
0.51764315366745,-0.482782781124115,-2.8782906532287598
0.5355764031410217,-0.48303720355033875,-2.8765757083892822
0.5533533096313477,-0.4831565320491791,-2.8739449977874756
0.5711398124694824,-0.4832942485809326,-2.8713138103485107
0.588937520980835,-0.4834505617618561,-2.868682622909546
0.6067478060722351,-0.48362550139427185,-2.8660519123077393
0.6245720982551575,-0.4838191270828247,-2.8634209632873535
0.6424118876457214,-0.4840315282344818,-2.860790252685547
0.6600568294525146,-0.48410749435424805,-2.8572428226470947
0.6779258251190186,-0.4843573272228241,-2.854611396789551
0.6955912709236145,-0.48447057604789734,-2.851064443588257
0.7134952545166016,-0.484758198261261,-2.848432779312134
0.7311867475509644,-0.48490890860557556,-2.8448853492736816
0.7488905787467957,-0.4850784242153168,-2.8413381576538086
0.7666080594062805,-0.48526671528816223,-2.8377909660339355
0.7843407988548279,-0.4854739308357239,-2.8342432975769043
0.8020901679992676,-0.4857001304626465,-2.830695629119873
0.8198575973510742,-0.48594537377357483,-2.8271477222442627
0.8373731374740601,-0.48605212569236755,-2.822683811187744
0.8551754355430603,-0.4863355755805969,-2.8191356658935547
0.8727164268493652,-0.4864800274372101,-2.814671277999878
0.8905597925186157,-0.4868021607398987,-2.8111233711242676
0.9081323742866516,-0.48698481917381287,-2.806658983230591
0.9257199764251709,-0.4871865510940552,-2.802194356918335
0.9433239102363586,-0.4874074161052704,-2.797729015350342
0.9609459042549133,-0.48764756321907043,-2.7932639122009277
0.9785877466201782,-0.48790720105171204,-2.7887990474700928
0.9959225058555603,-0.4880255162715912,-2.783416986465454
1.0136018991470337,-0.4883239269256592,-2.77895188331604
1.0309646129608154,-0.48848050832748413,-2.773569107055664
1.0486878156661987,-0.48881810903549194,-2.769103765487671
1.0660849809646606,-0.48901355266571045,-2.763721466064453
1.083498239517212,-0.4892282485961914,-2.758338451385498
1.1009292602539062,-0.48946231603622437,-2.7529549598693848
1.1183799505233765,-0.48971614241600037,-2.7475719451904297
1.1358516216278076,-0.48998960852622986,-2.7421884536743164
1.1529593467712402,-0.4901185631752014,-2.735887289047241
1.1704715490341187,-0.49043145775794983,-2.7305033206939697
1.1876097917556763,-0.49059930443763733,-2.7242019176483154
1.2047624588012695,-0.49078649282455444,-2.717900514602661
1.2219308614730835,-0.4909931719303131,-2.7115983963012695
1.239116907119751,-0.49121955037117004,-2.705296277999878
1.2563221454620361,-0.49146565794944763,-2.6989941596984863
1.2731139659881592,-0.4915640652179718,-2.6917734146118164
1.2903556823730469,-0.4918496608734131,-2.6854703426361084
1.307173728942871,-0.4919869005680084,-2.6782493591308594
1.3244589567184448,-0.4923126697540283,-2.6719465255737305
1.3417237997055054,-0.49264127016067505,-2.6655473709106445
1.359156608581543,-0.4930412173271179,-2.659421920776367
1.3762181997299194,-0.49331697821617126,-2.652514934539795
1.393715262413025,-0.4937589466571808,-2.6463894844055176
1.4112505912780762,-0.4942224621772766,-2.6402640342712402
1.4284015893936157,-0.4945608079433441,-2.633356809616089
1.4455821514129639,-0.49492010474205017,-2.6264493465423584
1.4627940654754639,-0.4953005611896515,-2.619542121887207
1.480039358139038,-0.49570232629776,-2.6126348972320557
1.4973195791244507,-0.4961255192756653,-2.605726957321167
1.5141812562942505,-0.49642103910446167,-2.5980372428894043
1.5315312147140503,-0.49688735604286194,-2.5911293029785156
1.5484539270401,-0.4972253739833832,-2.583439350128174
1.5654069185256958,-0.4975847005844116,-2.575749635696411
1.582391381263733,-0.4979653060436249,-2.568058729171753
1.5989216566085815,-0.4982154369354248,-2.5595860481262207
1.6159697771072388,-0.4986390769481659,-2.5518951416015625
1.6325539350509644,-0.4989313781261444,-2.543421745300293
1.6491647958755493,-0.4992448389530182,-2.5349483489990234
1.665804147720337,-0.4995795786380768,-2.5264744758605957
1.6824743747711182,-0.49993598461151123,-2.518000841140747
-1.3904647827148438,-0.4760497510433197,2.5263078212738037
-1.390982747077942,-0.4709853231906891,2.4909439086914062
-1.391512393951416,-0.46605241298675537,2.4563629627227783
-1.3919603824615479,-0.4612155556678772,2.4223744869232178
-1.3924403190612793,-0.4565085470676422,2.3891537189483643
-1.3929455280303955,-0.4519248306751251,2.3566620349884033
-1.3933777809143066,-0.44742873311042786,2.3247103691101074
-1.3938119411468506,-0.443041056394577,2.2934041023254395
-1.3942607641220093,-0.43876218795776367,2.262742042541504
-1.3946534395217896,-0.43456652760505676,2.2325892448425293
-1.3950755596160889,-0.4304778277873993,2.2030651569366455
-1.3954375982284546,-0.4264652729034424,2.17400860786438
-1.3958579301834106,-0.42256230115890503,2.145587682723999
-1.3962575197219849,-0.41874176263809204,2.117661476135254
-1.3965882062911987,-0.41498684883117676,2.090142011642456
-1.396982192993164,-0.411334365606308,2.0632128715515137
-1.3972971439361572,-0.4077397882938385,2.0366475582122803
-1.3976480960845947,-0.40423455834388733,2.010601043701172
-1.39796781539917,-0.4007968306541443,1.9849618673324585
-1.398333191871643,-0.3974463939666748,1.9598256349563599
-1.3986297845840454,-0.3941485285758972,1.9350183010101318
-1.3989709615707397,-0.39093339443206787,1.9106860160827637
-1.3992633819580078,-0.3877727687358856,1.8866883516311646
-1.3995450735092163,-0.384675532579422,1.8630664348602295
-1.3998507261276245,-0.381649374961853,1.8398555517196655
-1.4001269340515137,-0.37867796421051025,1.81697416305542
-1.4004194736480713,-0.37577202916145325,1.7944717407226562
-1.400680661201477,-0.3729170858860016,1.7722772359848022
-1.4009507894515991,-0.37012243270874023,1.7504326105117798
-1.4011852741241455,-0.36737480759620667,1.7288732528686523
-1.4014475345611572,-0.364689439535141,1.7076687812805176
-1.4016913175582886,-0.3620527684688568,1.6867536306381226
-1.4019516706466675,-0.35947251319885254,1.6661617755889893
-1.4021775722503662,-0.3569343090057373,1.6458245515823364
-1.4023767709732056,-0.35443899035453796,1.625744342803955
-1.402625560760498,-0.35200464725494385,1.6060023307800293
-1.4028187990188599,-0.349603533744812,1.5864697694778442
-1.403038740158081,-0.34725522994995117,1.5672340393066406
-1.4032539129257202,-0.34495070576667786,1.5482521057128906
-1.4034336805343628,-0.3426814079284668,1.5294842720031738
-1.4036351442337036,-0.3404603898525238,1.5109870433807373
-1.4038121700286865,-0.338275283575058,1.4927040338516235
-1.4040042161941528,-0.33613482117652893,1.474671721458435
-1.4041820764541626,-0.33403095602989197,1.4568532705307007
