-1.4309548139572144,-0.26594752073287964,-0.23925913870334625
-1.431106448173523,-0.26625385880470276,-0.24832051992416382
-1.4312584400177002,-0.2665709853172302,-0.2574031352996826
-1.431410789489746,-0.26689890027046204,-0.2665078043937683
-1.4315637350082397,-0.26723775267601013,-0.2756352424621582
-1.431717038154602,-0.2675875425338745,-0.2847862243652344
-1.431870698928833,-0.26794832944869995,-0.2939615249633789
-1.4320244789123535,-0.26832014322280884,-0.3031618893146515
-2.46105694770813,-0.461739718914032,-0.5368081331253052
-1.3948570489883423,-0.4969910681247711,2.1731042861938477
-1.3952761888504028,-0.49244225025177,2.144693613052368
-1.3956750631332397,-0.48798972368240356,2.1167778968811035
-1.3960061073303223,-0.4836140275001526,2.089270830154419
-1.3964022397994995,-0.4793583154678345,2.062356472015381
-1.396719217300415,-0.4751700460910797,2.0358052253723145
-1.397072434425354,-0.47108593583106995,2.009772777557373
-1.3973945379257202,-0.4670804738998413,1.9841477870941162
-1.397761583328247,-0.46317657828330994,1.9590243101119995
-1.3980602025985718,-0.45933401584625244,1.9342302083969116
-1.3984031677246094,-0.455587774515152,1.9099104404449463
-1.3986977338790894,-0.45190519094467163,1.8859256505966187
-1.398980975151062,-0.4482962191104889,1.8623155355453491
-1.399288535118103,-0.44477027654647827,1.8391166925430298
-1.399566650390625,-0.44130802154541016,1.8162471055984497
-1.3998606204986572,-0.437921941280365,1.7937556505203247
-1.400122880935669,-0.4345951974391937,1.7715715169906616
-1.400392770767212,-0.4313383102416992,1.7497354745864868
-1.4006268978118896,-0.4281361401081085,1.7281842231750488
-1.4008893966674805,-0.4250067174434662,1.7069886922836304
-1.4011337757110596,-0.4219341576099396,1.6860826015472412
-1.4013944864273071,-0.41892731189727783,1.6654995679855347
-1.4016202688217163,-0.41596928238868713,1.6451703310012817
-1.4018198251724243,-0.41306138038635254,1.625098705291748
-1.402068853378296,-0.41022446751594543,1.6053647994995117
-1.4022622108459473,-0.4074263274669647,1.5858403444290161
-1.402482509613037,-0.404689759016037,1.566612720489502
-1.4026978015899658,-0.4020041227340698,1.5476385354995728
-1.4028780460357666,-0.39935967326164246,1.5288788080215454
-1.4030797481536865,-0.3967713415622711,1.5103890895843506
-1.4032577276229858,-0.394225150346756,1.4921144247055054
-1.4034507274627686,-0.3917309641838074,1.474090337753296
-1.403628945350647,-0.38927921652793884,1.4562793970108032
-1.4037976264953613,-0.38687044382095337,1.4386818408966064
-1.4039636850357056,-0.38450556993484497,1.4212995767593384
-1.404238224029541,-0.3822137713432312,1.404238224029541
-1.4045212268829346,-0.37996652722358704,1.38739013671875
-1.4048010110855103,-0.3777596652507782,1.3707382678985596
-1.4050767421722412,-0.3755922019481659,1.354277491569519
-1.4053497314453125,-0.37346351146698,1.3380041122436523
-1.405619740486145,-0.3713727593421936,1.3219138383865356
-1.4058870077133179,-0.3693191707134247,1.3060022592544556
-1.4061508178710938,-0.3673017919063568,1.29026460647583
-1.4064124822616577,-0.36532020568847656,1.27469801902771
-1.4066708087921143,-0.3633733093738556,1.2592973709106445
-1.4069262742996216,-0.3614605963230133,1.2440593242645264
-1.4071791172027588,-0.3595813810825348,1.2289804220199585
-1.407429814338684,-0.35773512721061707,1.214057207107544
-1.4076777696609497,-0.35592103004455566,1.1992859840393066
-1.4079228639602661,-0.3541383743286133,1.1846626996994019
-1.4081658124923706,-0.35238680243492126,1.1701849699020386
-1.4084062576293945,-0.35066553950309753,1.1558490991592407
-1.408644437789917,-0.3489741384983063,1.1416521072387695
-1.4088802337646484,-0.34731194376945496,1.1275908946990967
-1.4091140031814575,-0.34567850828170776,1.113662600517273
-1.4093455076217651,-0.34407326579093933,1.09986412525177
-1.4095747470855713,-0.3424956202507019,1.0861924886703491
-1.4098020792007446,-0.34094521403312683,1.0726453065872192
-1.4100278615951538,-0.3394216299057007,1.0592201948165894
-1.4102507829666138,-0.337924063205719,1.0459132194519043
-1.41047203540802,-0.33645230531692505,1.0327229499816895
-1.4106916189193726,-0.3350059688091278,1.0196468830108643
-1.4109089374542236,-0.33358439803123474,1.0066817998886108
-1.4111244678497314,-0.332187294960022,0.9938259720802307
-1.4113383293151855,-0.33081430196762085,0.9810769557952881
-1.411550521850586,-0.32946500182151794,0.9684324860572815
-1.4117611646652222,-0.32813894748687744,0.9558902978897095
-1.4119696617126465,-0.3268357217311859,0.943448007106781
-1.412176489830017,-0.3255549967288971,0.9311035871505737
-1.4123824834823608,-0.32429659366607666,0.918855607509613
-1.412585973739624,-0.3230597972869873,0.9067009091377258
-1.4127882719039917,-0.32184454798698425,0.8946382999420166
-1.4129894971847534,-0.32065051794052124,0.8826659321784973
-1.4131888151168823,-0.31947723031044006,0.8707813620567322
-1.4133862257003784,-0.31832432746887207,0.8589827418327332
-1.413582444190979,-0.3171916604042053,0.8472687005996704
-1.4137778282165527,-0.3160790205001831,0.835637629032135
-1.4139717817306519,-0.3149859309196472,0.8240872621536255
-1.4141638278961182,-0.3139120638370514,0.8126158714294434
-1.4143555164337158,-0.31285741925239563,0.8012225031852722
-1.4145445823669434,-0.31182122230529785,0.7899042367935181
-1.4147335290908813,-0.3108038008213043,0.7786608934402466
-1.4149208068847656,-0.3098045289516449,0.7674900889396667
-1.4151068925857544,-0.30882322788238525,0.756390392780304
-1.4152923822402954,-0.3078598082065582,0.7453606724739075
-1.4154757261276245,-0.30691370368003845,0.7343987226486206
-1.4156582355499268,-0.3059849143028259,0.723503589630127
-1.4158400297164917,-0.3050732910633087,0.7126739621162415
-1.4160206317901611,-0.30417847633361816,0.7019082903862
-1.4162002801895142,-0.30330026149749756,0.6912051439285278
-1.4163787364959717,-0.3024384379386902,0.68056321144104
-1.4165563583374023,-0.3015928864479065,0.6699813008308411
-1.4167323112487793,-0.30076318979263306,0.6594575643539429
-1.4169081449508667,-0.2999494671821594,0.6489916443824768
-1.417082667350769,-0.29915130138397217,0.6385816335678101
-1.417256236076355,-0.29836854338645935,0.6282264590263367
-1.417428970336914,-0.2976010739803314,0.6179249882698059
-1.4176006317138672,-0.29684868454933167,0.6076759099960327
-1.4177716970443726,-0.29611122608184814,0.5974782705307007
-1.417941689491272,-0.29538848996162415,0.58733069896698
-1.4181110858917236,-0.2946803569793701,0.5772321820259094
-1.4182796478271484,-0.2939866781234741,0.5671816468238831
-1.4184473752975464,-0.29330724477767944,0.5571779012680054
-1.418614149093628,-0.29264190793037415,0.5472198724746704
-1.4187804460525513,-0.29199060797691345,0.5373066067695618
-1.4189456701278687,-0.2913530766963959,0.5274369120597839
-1.4191110134124756,-0.2907294034957886,0.5176100730895996
-1.4192744493484497,-0.2901190519332886,0.5078245401382446
-1.419438123703003,-0.28952232003211975,0.4980798661708832
-1.4196006059646606,-0.2889387905597687,0.4883746802806854
-1.4197627305984497,-0.2883685231208801,0.47870826721191406
-1.4199239015579224,-0.2878112196922302,0.46907949447631836
-1.420084834098816,-0.28726693987846375,0.45948758721351624
-1.4202452898025513,-0.28673556447029114,0.44993162155151367
-1.4204049110412598,-0.2862167954444885,0.44041046500205994
-1.4205635786056519,-0.2857106029987335,0.4309232532978058
-1.420722246170044,-0.2852170169353485,0.4214693605899811
-1.4208803176879883,-0.2847357988357544,0.4120476543903351
-1.4210376739501953,-0.284266859292984,0.40265733003616333
-1.4211941957473755,-0.2838100790977478,0.393297404050827
-1.4213505983352661,-0.28336548805236816,0.3839672803878784
-1.4215071201324463,-0.2829330265522003,0.37466612458229065
-1.421662449836731,-0.2825123965740204,0.3653928339481354
-1.4218171834945679,-0.282103568315506,0.3561466634273529
-1.4219715595245361,-0.2817065119743347,0.34692689776420593
-1.4221259355545044,-0.281321257352829,0.33773279190063477
-1.4222792387008667,-0.2809474766254425,0.32856330275535583
-1.4224326610565186,-0.2805853486061096,0.31941792368888855
-1.4225857257843018,-0.280234694480896,0.3102957606315613
-1.4227383136749268,-0.2798954248428345,0.30119600892066956
-1.422890305519104,-0.2795674502849579,0.2921178936958313
-1.4230421781539917,-0.27925077080726624,0.2830606997013092
-1.4231935739517212,-0.27894526720046997,0.2740236520767212
-1.4233442544937134,-0.27865085005760193,0.2650059163570404
-1.4234955310821533,-0.27836769819259644,0.25600704550743103
-1.4236462116241455,-0.2780955135822296,0.24702605605125427
-1.42379629611969,-0.2778342366218567,0.23806221783161163
-1.4239459037780762,-0.27758389711380005,0.2291148453950882
-1.4240955114364624,-0.2773444652557373,0.22018328309059143
-1.424244999885559,-0.27711591124534607,0.21126678586006165
-1.4243940114974976,-0.2768980860710144,0.20236462354660034
-1.4245431423187256,-0.2766910791397095,0.193476140499115
-1.4246917963027954,-0.27649471163749695,0.1846005767583847
-1.4248402118682861,-0.2763090431690216,0.17573727667331696
-1.424988865852356,-0.27613410353660583,0.1668855845928192
-1.4251368045806885,-0.27596965432167053,0.158044695854187
-1.425284743309021,-0.27581581473350525,0.1492140144109726
-1.4254324436187744,-0.2756725251674652,0.14039283990859985
-1.4255805015563965,-0.2755398154258728,0.13158054649829865
-1.4257278442382812,-0.2754175066947937,0.1227763369679451
-1.4258748292922974,-0.2753055989742279,0.11397960782051086
-1.4260224103927612,-0.27520430088043213,0.1051897332072258
-1.426169514656067,-0.2751133441925049,0.09640596807003021
-1.426316499710083,-0.27503278851509094,0.08762767910957336
-1.4264636039733887,-0.2749626934528351,0.07885421812534332
-1.4266103506088257,-0.27490290999412537,0.07008486986160278
-1.4267572164535522,-0.27485355734825134,0.0613190233707428
-1.4269037246704102,-0.2748144567012787,0.05255597457289696
-1.4270503520965576,-0.2747857868671417,0.04379509761929512
-1.4271973371505737,-0.2747674882411957,0.03503572568297386
-1.4273439645767212,-0.27475953102111816,0.02627718634903431
-1.4274905920028687,-0.2747618854045868,0.017518825829029083
-1.4276373386383057,-0.27477461099624634,0.008759982883930206
-1.4277840852737427,-0.2747976779937744,2.622710201533057e-16
-1.4279308319091797,-0.2748311161994934,-0.008761784061789513
-1.4280774593353271,-0.27487483620643616,-0.01752602681517601
-1.4282242059707642,-0.2749289870262146,-0.026293393224477768
-1.4283710718154907,-0.2749934792518616,-0.035064540803432465
-1.4285184144973755,-0.275068461894989,-0.04384015128016472
-1.428665280342102,-0.2751537263393402,-0.05262085795402527
-1.4288121461868286,-0.2752493917942047,-0.061407335102558136
-1.4289594888687134,-0.27535557746887207,-0.07020027935504913
-1.4291070699691772,-0.2754722535610199,-0.07900034636259079
-1.429254412651062,-0.27559930086135864,-0.08780817687511444
-1.4294019937515259,-0.27573689818382263,-0.0966244786977768
-1.429550051689148,-0.27588507533073425,-0.10544994473457336
-1.4296975135803223,-0.27604368329048157,-0.1142851784825325
-1.4298456907272339,-0.2762129604816437,-0.12313094735145569
-1.4299938678741455,-0.2763928472995758,-0.13198789954185486
-1.4301426410675049,-0.2765834331512451,-0.1408567577600479
-1.4302914142608643,-0.2767847180366516,-0.14973817765712738
-1.430440068244934,-0.2769966125488281,-0.1586328148841858
-1.4305895566940308,-0.27721941471099854,-0.1675414890050888
-1.4307384490966797,-0.27745285630226135,-0.1764647513628006
-1.430888295173645,-0.2776973247528076,-0.1854034811258316
-1.4310386180877686,-0.2779527008533478,-0.19435833394527435
-1.4311884641647339,-0.2782188951969147,-0.2033299207687378
-1.4313387870788574,-0.2784961462020874,-0.2123190462589264
-1.4314899444580078,-0.27878454327583313,-0.221326544880867
-1.4316407442092896,-0.27908390760421753,-0.2303529530763626
-1.4317922592163086,-0.2793945372104645,-0.23939915001392365
-1.4319438934326172,-0.2797163724899292,-0.24846583604812622
-1.4320958852767944,-0.28004950284957886,-0.25755375623703003
-1.4322484731674194,-0.280394047498703,-0.2666637599468231
-1.432401418685913,-0.28075000643730164,-0.2757965326309204
-1.4325547218322754,-0.28111743927001953,-0.284952849149704
-1.432708501815796,-0.28149649500846863,-0.2941335141658783
-1.4328621625900269,-0.28188708424568176,-0.30333924293518066
-2.3432564735412598,-0.4615972936153412,-0.5111133456230164
-1.3959356546401978,-0.497572660446167,2.034663200378418
-1.3962883949279785,-0.49329590797424316,2.0086450576782227
-1.3966103792190552,-0.4891016483306885,1.9830342531204224
-1.3969775438308716,-0.48501378297805786,1.9579254388809204
-1.3972758054733276,-0.4809900224208832,1.9331450462341309
-1.3976184129714966,-0.47706711292266846,1.9088387489318848
-1.3979129791259766,-0.4732109308242798,1.884867548942566
-1.3981961011886597,-0.4694318473339081,1.861270785331726
-1.3985036611557007,-0.4657396972179413,1.8380851745605469
-1.398781418800354,-0.462114155292511,1.8152281045913696
-1.3990753889083862,-0.4585684835910797,1.7927494049072266
-1.3993372917175293,-0.45508480072021484,1.770577311515808
-1.3996073007583618,-0.4516744613647461,1.7487540245056152
-1.39984130859375,-0.4483213424682617,1.7272149324417114
-1.4001038074493408,-0.4450444281101227,1.7060314416885376
-1.4003478288650513,-0.4418269395828247,1.6851369142532349
-1.4006081819534302,-0.4386782646179199,1.664565086364746
-1.400834083557129,-0.43558087944984436,1.6442476511001587
-1.4010334014892578,-0.4325358271598816,1.6241871118545532
-1.4012823104858398,-0.4295651614665985,1.6044641733169556
-1.4014757871627808,-0.42663514614105225,1.5849509239196777
-1.401695966720581,-0.4237695336341858,1.5657340288162231
-1.4019110202789307,-0.4209572672843933,1.546770453453064
-1.4020910263061523,-0.4181881248950958,1.5280210971832275
-1.4022928476333618,-0.41547784209251404,1.5095421075820923
-1.402470588684082,-0.4128115773200989,1.4912775754928589
-1.4026635885238647,-0.4101997911930084,1.4732636213302612
-1.4028420448303223,-0.40763258934020996,1.4554630517959595
-1.4030108451843262,-0.40511029958724976,1.437875509262085
-1.4032102823257446,-0.40264347195625305,1.420536756515503
-1.4034510850906372,-0.40023401379585266,1.4034510850906372
-1.4037339687347412,-0.39788082242012024,1.3866124153137207
-1.4040132761001587,-0.3955698609352112,1.3699696063995361
-1.4042888879776,-0.39330020546913147,1.3535181283950806
-1.4045616388320923,-0.3910711407661438,1.3372538089752197
-1.4048316478729248,-0.3888818621635437,1.3211727142333984
-1.4050986766815186,-0.38673141598701477,1.3052698373794556
-1.4053623676300049,-0.3846189081668854,1.2895410060882568
-1.4056240320205688,-0.3825439214706421,1.273983359336853
-1.4058821201324463,-0.380505234003067,1.2585912942886353
-1.4061375856399536,-0.37850239872932434,1.2433619499206543
-1.4063903093338013,-0.3765345811843872,1.2282915115356445
-1.406640648841858,-0.37460121512413025,1.213376522064209
-1.4068882465362549,-0.3727015256881714,1.1986132860183716
-1.4071334600448608,-0.37083491683006287,1.1839985847473145
-1.4073765277862549,-0.36900079250335693,1.1695290803909302
-1.4076166152954102,-0.3671983480453491,1.1552010774612427
-1.407854676246643,-0.3654271960258484,1.1410120725631714
-1.408090353012085,-0.3636866509914398,1.1269587278366089
-1.408324122428894,-0.3619762063026428,1.1130383014678955
-1.4085553884506226,-0.36029523611068726,1.0992474555969238
-1.4087845087051392,-0.35864323377609253,1.0855834484100342
-1.4090114831924438,-0.35701966285705566,1.072043776512146
-1.409237027168274,-0.35542425513267517,1.0586260557174683
-1.409460186958313,-0.3538561463356018,1.0453269481658936
-1.4096813201904297,-0.3523150086402893,1.0321440696716309
-1.4099006652832031,-0.35080042481422424,1.0190751552581787
-1.4101176261901855,-0.34931179881095886,1.0061172246932983
-1.4103333950042725,-0.34784892201423645,0.9932687878608704
-1.4105470180511475,-0.34641116857528687,0.980526864528656
-1.4107590913772583,-0.34499821066856384,0.9678894281387329
-1.410969614982605,-0.34360969066619873,0.9553543329238892
-1.4111781120300293,-0.3422450125217438,0.9429190158843994
-1.4113845825195312,-0.3409038484096527,0.9305813908576965
-1.411590337753296,-0.3395861089229584,0.9183402061462402
-1.4117939472198486,-0.33829107880592346,0.9061925411224365
-1.4119960069656372,-0.33701851963996887,0.8941366672515869
-1.4121971130371094,-0.3357681930065155,0.8821709752082825
-1.4123961925506592,-0.3345395624637604,0.8702930212020874
-1.4125938415527344,-0.333332359790802,0.8585011959075928
-1.412790060043335,-0.3321463167667389,0.8467937111854553
-1.4129852056503296,-0.33098116517066956,0.8351690769195557
-1.4131789207458496,-0.32983654737472534,0.8236252069473267
-1.413370966911316,-0.32871201634407043,0.8121602535247803
-1.4135624170303345,-0.3276076316833496,0.8007732033729553
-1.4137513637542725,-0.3265226185321808,0.7894613146781921
-1.4139400720596313,-0.3254571855068207,0.7782242298126221
-1.4141273498535156,-0.3244108259677887,0.7670596837997437
-1.4143133163452148,-0.32338324189186096,0.7559661865234375
-1.4144985675811768,-0.3223743736743927,0.7449426054954529
-1.4146820306777954,-0.3213837146759033,0.7339868545532227
-1.414864420890808,-0.32041114568710327,0.7230978608131409
-1.4150460958480835,-0.3194565176963806,0.7122743129730225
-1.415226697921753,-0.3185195326805115,0.701514720916748
-1.4154061079025269,-0.31759992241859436,0.6908175945281982
-1.4155843257904053,-0.3166974186897278,0.6801815032958984
-1.415761947631836,-0.31581202149391174,0.669605553150177
-1.415937900543213,-0.31494322419166565,0.6590878367424011
-1.4161136150360107,-0.31409114599227905,0.648627758026123
-1.416287899017334,-0.31325531005859375,0.6382235288619995
-1.4164613485336304,-0.31243565678596497,0.6278741359710693
-1.416634202003479,-0.31163203716278076,0.6175785064697266
-1.4168058633804321,-0.31084418296813965,0.6073352694511414
-1.4169763326644897,-0.3100718557834625,0.5971431136131287
-1.4171466827392578,-0.30931511521339417,0.5870013236999512
-1.4173158407211304,-0.3085736036300659,0.576908528804779
-1.4174842834472656,-0.30784720182418823,0.5668635964393616
-1.417651653289795,-0.3071357011795044,0.556865394115448
-1.4178186655044556,-0.306439071893692,0.5469130277633667
-1.4179848432540894,-0.3057570457458496,0.5370053052902222
-1.4181499481201172,-0.30508944392204285,0.5271410942077637
-1.4183149337768555,-0.3044363260269165,0.5173197388648987
-1.4184784889221191,-0.3037972152233124,0.507539689540863
-1.4186418056488037,-0.3031723201274872,0.49780046939849854
-1.4188045263290405,-0.30256134271621704,0.4881008267402649
-1.41896653175354,-0.3019641637802124,0.4784398376941681
-1.4191278219223022,-0.3013806641101837,0.46881651878356934
-1.4192883968353271,-0.30081066489219666,0.4592299163341522
-1.419448733329773,-0.3002541661262512,0.44967925548553467
-1.4196083545684814,-0.2997109889984131,0.4401634931564331
-1.4197670221328735,-0.29918092489242554,0.43068161606788635
-1.419925570487976,-0.29866406321525574,0.42123299837112427
-1.4200832843780518,-0.2981601357460022,0.4118165075778961
-1.420240879058838,-0.2976691722869873,0.40243154764175415
-1.420397162437439,-0.2971908152103424,0.3930768370628357
-1.4205536842346191,-0.2967253029346466,0.3837519884109497
-1.4207097291946411,-0.2962723672389984,0.374455988407135
-1.4208650588989258,-0.29583191871643066,0.3651879131793976
-1.4210199117660522,-0.2954038381576538,0.35594695806503296
-1.4211742877960205,-0.29498809576034546,0.34673237800598145
-1.4213286638259888,-0.2945846915245056,0.33754345774650574
-1.4214818477630615,-0.294193297624588,0.3283790946006775
-1.4216347932815552,-0.2938140034675598,0.3192387521266937
-1.4217880964279175,-0.2934468984603882,0.3101218044757843
-1.4219403266906738,-0.2930915653705597,0.3010270893573761
-1.422092318534851,-0.2927481234073639,0.29195404052734375
-1.4222440719604492,-0.292416512966156,0.28290194272994995
-1.4223954677581787,-0.29209664463996887,0.27386996150016785
-1.422546148300171,-0.29178836941719055,0.26485732197761536
-1.4226973056793213,-0.291491836309433,0.2558634877204895
-1.4228477478027344,-0.29120680689811707,0.24688751995563507
-1.4229977130889893,-0.290933221578598,0.23792868852615356
-1.4231473207473755,-0.29067108035087585,0.22898635268211365
-1.4232969284057617,-0.29042038321495056,0.22005979716777802
-1.4234462976455688,-0.290181040763855,0.21114832162857056
-1.4235954284667969,-0.28995296359062195,0.20225116610527039
-1.4237444400787354,-0.28973621129989624,0.19336767494678497
-1.4238927364349365,-0.28953054547309875,0.18449705839157104
-1.4240411520004272,-0.2893361449241638,0.17563872039318085
-1.424189805984497,-0.28915295004844666,0.16679200530052185
-1.42433762550354,-0.28898075222969055,0.157956063747406
-1.424485445022583,-0.28881967067718506,0.14913034439086914
-1.4246329069137573,-0.28866955637931824,0.14031410217285156
-1.4247808456420898,-0.2885305881500244,0.13150674104690552
-1.4249283075332642,-0.2884025573730469,0.12270748615264893
-1.4250754117965698,-0.28828540444374084,0.11391569674015045
-1.4252227544784546,-0.28817930817604065,0.10513074696063995
-1.4253698587417603,-0.28808408975601196,0.09635191410779953
-1.4255166053771973,-0.2879997193813324,0.08757854253053665
-1.4256638288497925,-0.2879263460636139,0.07881000638008118
-1.4258102178573608,-0.28786367177963257,0.07004556059837341
-1.4259570837020874,-0.2878119945526123,0.061284635215997696
-1.4261035919189453,-0.2877711057662964,0.052526507526636124
-1.4262501001358032,-0.2877410352230072,0.04377054050564766
-1.4263970851898193,-0.2877219319343567,0.03501608222723007
-1.4265437126159668,-0.28771358728408813,0.026262454688549042
-1.4266901016235352,-0.2877160310745239,0.01750900037586689
-1.4268367290496826,-0.2877293527126312,0.008755071088671684
-1.4269834756851196,-0.28775352239608765,2.6212395405783866e-16
-1.4271302223205566,-0.2877885401248932,-0.008756871335208416
-1.4272767305374146,-0.2878343462944031,-0.017516199499368668
-1.427423357963562,-0.2878910005092621,-0.026278648525476456
-1.4275699853897095,-0.2879585325717926,-0.035044874995946884
-1.4277173280715942,-0.2880370318889618,-0.04381556436419487
-1.4278640747070312,-0.2881263196468353,-0.05259134620428085
-1.4280108213424683,-0.28822651505470276,-0.061372898519039154
-1.4281582832336426,-0.28833773732185364,-0.07016091793775558
-1.4283055067062378,-0.2884598672389984,-0.07895603775978088
-1.4284528493881226,-0.2885929346084595,-0.08775893598794937
-1.4286003112792969,-0.2887369990348816,-0.09657029062509537
-1.4287482500076294,-0.2888921797275543,-0.10539080947637558
-1.4288957118988037,-0.28905823826789856,-0.11422108113765717
-1.4290437698364258,-0.28923550248146057,-0.1230618879199028
-1.4291918277740479,-0.2894238531589508,-0.13191387057304382
-1.4293403625488281,-0.2896234095096588,-0.14077773690223694
-1.4294893741607666,-0.289834201335907,-0.14965419471263885
-1.4296380281448364,-0.29005613923072815,-0.15854386985301971
-1.429787278175354,-0.29028943181037903,-0.1674475520849228
-1.4299362897872925,-0.2905339002609253,-0.17636580765247345
-1.4300860166549683,-0.2907898724079132,-0.18529953062534332
-1.4302358627319336,-0.2910572290420532,-0.19424930214881897
-1.430385947227478,-0.2913360297679901,-0.20321589708328247
-1.430535912513733,-0.29162630438804626,-0.21219997107982635
-1.4306871891021729,-0.29192832112312317,-0.22120243310928345
-1.4308377504348755,-0.29224181175231934,-0.23022374510765076
-1.4309890270233154,-0.29256704449653625,-0.2392648458480835
-1.4311408996582031,-0.2929041087627411,-0.24832649528980255
-1.4312928915023804,-0.29325294494628906,-0.25740933418273926
-1.4314454793930054,-0.2936137616634369,-0.26651424169540405
-1.4315983057022095,-0.2939864993095398,-0.27564188838005066
-1.4317512512207031,-0.29437121748924255,-0.28479304909706116
-1.431904911994934,-0.2947681248188019,-0.2939685583114624
-1.4320586919784546,-0.2951771914958954,-0.3031691610813141
-2.2852516174316406,-0.4716596007347107,-0.4984613060951233
-1.3985364437103271,-0.49920740723609924,1.9100924730300903
-1.398830771446228,-0.4951721429824829,1.886104941368103
-1.3991142511367798,-0.4912177324295044,1.8624929189682007
-1.3994215726852417,-0.4873540997505188,1.8392915725708008
-1.3996995687484741,-0.48356032371520996,1.8164194822311401
-1.3999934196472168,-0.4798499643802643,1.7939257621765137
-1.400255560874939,-0.47620466351509094,1.7717392444610596
-1.4005261659622192,-0.4726361930370331,1.7499021291732788
-1.4007604122161865,-0.46912747621536255,1.728348970413208
-1.401023030281067,-0.4656984806060791,1.7071515321731567
-1.401267170906067,-0.4623316526412964,1.6862431764602661
-1.4015278816223145,-0.4590368866920471,1.6656581163406372
-1.4017539024353027,-0.4557957649230957,1.6453273296356201
-1.4019534587860107,-0.45260941982269287,1.625253677368164
-1.4022027254104614,-0.4495009481906891,1.605518102645874
-1.4023959636688232,-0.4464348554611206,1.585991621017456
-1.4026163816452026,-0.44343629479408264,1.5667622089385986
-1.402831792831421,-0.44049355387687683,1.5477863550186157
-1.4030117988586426,-0.43759584426879883,1.529024600982666
-1.4032139778137207,-0.43475985527038574,1.5105336904525757
-1.4033914804458618,-0.4319697320461273,1.492256760597229
-1.4035848379135132,-0.42923682928085327,1.474231243133545
-1.4037636518478394,-0.4265505373477936,1.4564192295074463
-1.4039331674575806,-0.4239113926887512,1.438820719718933
-1.4041332006454468,-0.4213302433490753,1.421471118927002
-1.404373288154602,-0.4188086688518524,1.404373288154602
-1.4046565294265747,-0.41634631156921387,1.3875236511230469
-1.4049360752105713,-0.41392815113067627,1.3708701133728027
-1.4052119255065918,-0.41155314445495605,1.354407787322998
-1.4054847955703735,-0.4092206060886383,1.3381327390670776
-1.4057549238204956,-0.40692970156669617,1.3220409154891968
-1.406022071838379,-0.40467947721481323,1.306127667427063
-1.4062858819961548,-0.4024689197540283,1.2903884649276733
-1.4065477848052979,-0.4002976417541504,1.2748205661773682
-1.4068057537078857,-0.3981642723083496,1.259418249130249
-1.4070616960525513,-0.3960685431957245,1.244179129600525
-1.4073145389556885,-0.39400941133499146,1.2290986776351929
-1.4075651168823242,-0.39198634028434753,1.2141740322113037
-1.4078128337860107,-0.3899984359741211,1.1994010210037231
-1.4080580472946167,-0.38804519176483154,1.1847765445709229
-1.4083009958267212,-0.3861258625984192,1.1702972650527954
-1.4085416793823242,-0.38423988223075867,1.1559603214263916
-1.4087797403335571,-0.3823864758014679,1.1417617797851562
-1.4090157747268677,-0.38056519627571106,1.127699375152588
-1.4092495441436768,-0.37877535820007324,1.1137696504592896
-1.4094809293746948,-0.3770163655281067,1.0999696254730225
-1.409710168838501,-0.3752876818180084,1.086296796798706
-1.4099373817443848,-0.37358880043029785,1.0727481842041016
-1.4101630449295044,-0.37191930413246155,1.059321641921997
-1.4103864431381226,-0.3702784776687622,1.0460138320922852
-1.4106075763702393,-0.36866578459739685,1.0328222513198853
-1.4108270406723022,-0.3670808970928192,1.0197447538375854
-1.4110442399978638,-0.36552318930625916,1.006778359413147
-1.4112600088119507,-0.3639924228191376,0.9939214587211609
-1.4114739894866943,-0.3624880015850067,0.9811712503433228
-1.4116861820220947,-0.3610094487667084,0.9685254693031311
-1.4118969440460205,-0.35955649614334106,0.9559822678565979
-1.4121053218841553,-0.35812845826148987,0.9435386061668396
-1.4123121500015259,-0.3567250967025757,0.9311930537223816
-1.41251802444458,-0.3553461730480194,0.9189437627792358
-1.4127213954925537,-0.35399094223976135,0.9067878127098083
-1.4129239320755005,-0.3526594042778015,0.8947242498397827
-1.4131250381469727,-0.3513510227203369,0.8827506303787231
-1.4133244752883911,-0.3500654101371765,0.870864987373352
-1.4135217666625977,-0.3488020896911621,0.8590651750564575
-1.4137181043624878,-0.3475610017776489,0.847350001335144
-1.4139134883880615,-0.3463418185710907,0.8357177376747131
-1.414107322692871,-0.34514403343200684,0.8241662979125977
-1.414299488067627,-0.34396737813949585,0.8126938343048096
-1.414491057395935,-0.3428117036819458,0.8012992739677429
-1.4146803617477417,-0.34167638421058655,0.7899801135063171
-1.4148691892623901,-0.34056150913238525,0.7787355780601501
-1.415056586265564,-0.33946657180786133,0.7675637006759644
-1.4152426719665527,-0.3383913040161133,0.7564629316329956
-1.4154279232025146,-0.33733561635017395,0.7454320788383484
-1.4156115055084229,-0.33629894256591797,0.7344691157341003
-1.415794014930725,-0.33528125286102295,0.7235729694366455
-1.415975570678711,-0.3342822790145874,0.7127422094345093
-1.4161564111709595,-0.3333018124103546,0.7019755840301514
-1.416335940361023,-0.3323395252227783,0.6912713646888733
-1.41651451587677,-0.3313952088356018,0.6806284785270691
-1.4166921377182007,-0.33046868443489075,0.6700454950332642
-1.4168680906295776,-0.3295595347881317,0.6595208048820496
-1.417043924331665,-0.32866790890693665,0.6490538716316223
-1.417218565940857,-0.32779332995414734,0.6386429071426392
-1.4173921346664429,-0.32693564891815186,0.6282867193222046
-1.4175647497177124,-0.3260946571826935,0.6179841756820679
-1.4177366495132446,-0.32527026534080505,0.6077342629432678
-1.417907476425171,-0.3244621455669403,0.5975354909896851
-1.4180775880813599,-0.32367023825645447,0.587386965751648
-1.418247103691101,-0.3228943347930908,0.5772875547409058
-1.4184156656265259,-0.32213422656059265,0.5672360062599182
-1.4185831546783447,-0.32138970494270325,0.5572312474250793
-1.4187500476837158,-0.32066068053245544,0.5472723245620728
-1.4189163446426392,-0.3199470043182373,0.5373580455780029
-1.4190815687179565,-0.3192484378814697,0.5274873971939087
-1.419246792793274,-0.3185650408267975,0.5176596641540527
-1.4194104671478271,-0.31789630651474,0.5078731775283813
-1.4195739030838013,-0.3172423839569092,0.4981275200843811
-1.4197365045547485,-0.31660300493240356,0.4884214401245117
-1.4198986291885376,-0.31597813963890076,0.4787541329860687
-1.4200600385665894,-0.31536751985549927,0.4691244661808014
-1.4202208518981934,-0.3147711157798767,0.45953160524368286
-1.4203811883926392,-0.31418880820274353,0.4499746859073639
-1.4205409288406372,-0.313620388507843,0.4404526352882385
-1.4206997156143188,-0.3130657374858856,0.43096455931663513
-1.4208585023880005,-0.3125249147415161,0.4215097427368164
-1.4210162162780762,-0.31199756264686584,0.4120870530605316
-1.4211738109588623,-0.311483770608902,0.402695894241333
-1.421330451965332,-0.310983270406723,0.39333510398864746
-1.4214869737625122,-0.31049612164497375,0.3840041160583496
-1.4216430187225342,-0.31002217531204224,0.37470197677612305
-1.4217984676361084,-0.30956128239631653,0.36542779207229614
-1.4219533205032349,-0.3091133236885071,0.35618075728416443
-1.4221079349517822,-0.3086783289909363,0.3469601571559906
-1.4222623109817505,-0.3082561790943146,0.3377651870250702
-1.4224156141281128,-0.3078466057777405,0.32859480381011963
-1.4225687980651855,-0.3074497580528259,0.3194485008716583
-1.4227222204208374,-0.30706560611724854,0.310325562953949
-1.4228745698928833,-0.30669376254081726,0.30122485756874084
-1.42302668094635,-0.30633440613746643,0.29214587807655334
-1.4231783151626587,-0.3059873580932617,0.28308776021003723
-1.4233298301696777,-0.3056526482105255,0.27404987812042236
-1.4234806299209595,-0.3053300678730011,0.2650313079357147
-1.423632025718689,-0.3050197958946228,0.2560315728187561
-1.4237825870513916,-0.30472153425216675,0.2470497041940689
-1.423932671546936,-0.30443528294563293,0.23808501660823822
-1.4240821599960327,-0.3041608929634094,0.22913675010204315
-1.424232006072998,-0.3038986027240753,0.22020436823368073
-1.4243813753128052,-0.30364811420440674,0.2112870216369629
-1.4245307445526123,-0.30340951681137085,0.20238403975963593
-1.4246796369552612,-0.3031826615333557,0.19349469244480133
-1.4248281717300415,-0.30296748876571655,0.1846182495355606
-1.4249768257141113,-0.30276408791542053,0.1757541298866272
-1.4251253604888916,-0.3025723695755005,0.1669015735387802
-1.4252732992172241,-0.3023921549320221,0.15805983543395996
-1.4254212379455566,-0.3022235929965973,0.1492283195257187
-1.425568699836731,-0.30206650495529175,0.1404062658548355
-1.4257168769836426,-0.30192112922668457,0.13159313797950745
-1.425864338874817,-0.3017871379852295,0.12278810143470764
-1.4260114431381226,-0.3016645312309265,0.11399052292108536
-1.4261587858200073,-0.30155348777770996,0.10519979149103165
-1.4263062477111816,-0.3014538884162903,0.096415214240551
-1.4264529943466187,-0.30136558413505554,0.0876360684633255
-1.4266002178192139,-0.30128875374794006,0.078861765563488
-1.4267467260360718,-0.3012232184410095,0.07009157538414001
-1.426893949508667,-0.30116918683052063,0.061324894428253174
-1.427040457725525,-0.3011263906955719,0.052561014890670776
-1.4271870851516724,-0.3010949194431305,0.04379929229617119
-1.4273340702056885,-0.30107492208480835,0.035039085894823074
-1.427480936050415,-0.30106621980667114,0.026279708370566368
-1.4276273250579834,-0.3010687530040741,0.01752050220966339
-1.42777419090271,-0.3010827302932739,0.00876082293689251
-1.4279206991195679,-0.3011079430580139,2.622961135043681e-16
-1.4280675649642944,-0.3011445701122284,-0.008762623183429241
-1.428214430809021,-0.3011925518512726,-0.017527706921100616
-1.428361177444458,-0.3012518584728241,-0.026295911520719528
-1.428507924079895,-0.3013225197792053,-0.03506790101528168
-1.4286551475524902,-0.3014046549797058,-0.04384434595704079
-1.4288018941879272,-0.30149805545806885,-0.05262589082121849
-1.4289488792419434,-0.30160292983055115,-0.06141321361064911
-1.4290963411331177,-0.3017192780971527,-0.07020699977874756
-1.4292436838150024,-0.30184707045555115,-0.07900790125131607
-1.4293911457061768,-0.30198630690574646,-0.08781657367944717
-1.4295387268066406,-0.3021370768547058,-0.09663372486829758
-1.4296866655349731,-0.302299439907074,-0.105460025370121
-1.4298344850540161,-0.3024732768535614,-0.11429613083600998
-1.4299824237823486,-0.30265870690345764,-0.12314272671937943
-1.4301308393478394,-0.30285584926605225,-0.13200053572654724
-1.4302796125411987,-0.3030647039413452,-0.14087025821208954
-1.4304282665252686,-0.3032852113246918,-0.14975249767303467
-1.4305771589279175,-0.3035174310207367,-0.15864801406860352
-1.4307265281677246,-0.3037615418434143,-0.16755753755569458
-1.430875539779663,-0.3040173649787903,-0.17648166418075562
-1.4310253858566284,-0.3042852282524109,-0.18542125821113586
-1.4311754703521729,-0.3045650124549866,-0.19437691569328308
-1.4313256740570068,-0.3048567771911621,-0.20334941148757935
-1.4314756393432617,-0.3051604628562927,-0.2123393565416336
-1.4316270351409912,-0.3054765462875366,-0.22134774923324585
-1.4317777156829834,-0.3058045506477356,-0.2303749918937683
-1.4319292306900024,-0.30614492297172546,-0.23942206799983978
-1.4320811033248901,-0.30649760365486145,-0.2484896332025528
-1.4322329759597778,-0.30686259269714355,-0.25757843255996704
-1.4323856830596924,-0.3072401285171509,-0.2666893005371094
-1.4325387477874756,-0.3076302111148834,-0.2758229672908783
-1.4326919317245483,-0.3080328404903412,-0.2849801480770111
-1.4328457117080688,-0.3084481358528137,-0.29416170716285706
-1.4329997301101685,-0.3088762164115906,-0.30336835980415344
-2.1886537075042725,-0.47237628698349,-0.4773912727832794
-1.3994064331054688,-0.49680227041244507,1.770664930343628
-1.3996766805648804,-0.49307936429977417,1.7488406896591187
-1.399910807609558,-0.4894188642501831,1.7273006439208984
-1.400173306465149,-0.4858415722846985,1.7061160802841187
-1.400417447090149,-0.4823291599750519,1.6852205991744995
-1.4006776809692383,-0.4788917899131775,1.6646476984024048
-1.4009038209915161,-0.4755105674266815,1.64432954788208
-1.4011032581329346,-0.472186416387558,1.6242680549621582
-1.4013522863388062,-0.46894344687461853,1.6045444011688232
-1.4015454053878784,-0.4657447338104248,1.5850297212600708
-1.4017657041549683,-0.4626164734363556,1.5658119916915894
-1.4019807577133179,-0.45954641699790955,1.5468474626541138
-1.4021610021591187,-0.45652344822883606,1.5280972719192505
-1.4023627042770386,-0.45356470346450806,1.5096173286437988
-1.4025403261184692,-0.45065397024154663,1.4913517236709595
-1.4027334451675415,-0.4478028118610382,1.4733370542526245
-1.4029127359390259,-0.4450004994869232,1.4555362462997437
-1.4030824899673462,-0.44224733114242554,1.4379489421844482
-1.4032492637634277,-0.439544141292572,1.4205762147903442
-1.4035221338272095,-0.4369238317012787,1.4035221338272095
-1.4038052558898926,-0.4343549609184265,1.3866827487945557
-1.4040844440460205,-0.43183213472366333,1.3700391054153442
-1.4043601751327515,-0.4293544292449951,1.3535867929458618
-1.404632806777954,-0.42692098021507263,1.3373216390609741
-1.404902696609497,-0.424530953168869,1.3212394714355469
-1.40516996383667,-0.42218345403671265,1.3053361177444458
-1.4054336547851562,-0.4198773205280304,1.2896064519882202
-1.4056949615478516,-0.4176120162010193,1.2740477323532104
-1.405953049659729,-0.415386438369751,1.2586548328399658
-1.4062086343765259,-0.4131999909877777,1.2434247732162476
-1.4064613580703735,-0.41105177998542786,1.228353500366211
-1.4067119359970093,-0.40894126892089844,1.2134380340576172
-1.4069596529006958,-0.40686744451522827,1.1986740827560425
-1.4072046279907227,-0.40482965111732483,1.184058427810669
-1.4074472188949585,-0.40282726287841797,1.1695878505706787
-1.4076879024505615,-0.4008597433567047,1.155259609222412
-1.4079257249832153,-0.39892616868019104,1.141069769859314
-1.4081616401672363,-0.3970261216163635,1.1270158290863037
-1.4083952903747559,-0.3951588571071625,1.113094449043274
-1.4086265563964844,-0.3933238089084625,1.0993030071258545
-1.4088554382324219,-0.39152029156684875,1.085638165473938
-1.4090826511383057,-0.3897479772567749,1.0720980167388916
-1.4093083143234253,-0.3880062699317932,1.0586795806884766
-1.4095314741134644,-0.386294424533844,1.0453797578811646
-1.409752368927002,-0.38461199402809143,1.0321961641311646
-1.409971833229065,-0.3829585909843445,1.0191266536712646
-1.4101890325546265,-0.38133352994918823,1.006168246269226
-1.4104043245315552,-0.37973645329475403,0.9933188557624817
-1.4106183052062988,-0.37816697359085083,0.9805764555931091
-1.4108302593231201,-0.3766244649887085,0.9679383039474487
-1.411041021347046,-0.3751086890697479,0.955402672290802
-1.4112491607666016,-0.37361884117126465,0.9429665803909302
-1.411455750465393,-0.37215474247932434,0.9306283593177795
-1.4116616249084473,-0.3707162141799927,0.9183865785598755
-1.411864995956421,-0.3693024218082428,0.9062381386756897
-1.4120672941207886,-0.36791321635246277,0.8941817283630371
-1.4122684001922607,-0.3665482997894287,0.8822154998779297
-1.4124675989151,-0.3652070462703705,0.8703370094299316
-1.4126650094985962,-0.3638891279697418,0.8585444092750549
-1.4128611087799072,-0.3625943660736084,0.8468363881111145
-1.413056492805481,-0.36132246255874634,0.8352112770080566
-1.4132500886917114,-0.3600728213787079,0.8236666917800903
-1.4134421348571777,-0.3588452637195587,0.812201201915741
-1.4136335849761963,-0.3576396405696869,0.8008135557174683
-1.4138226509094238,-0.35645514726638794,0.7895011305809021
-1.4140115976333618,-0.35529211163520813,0.7782635688781738
-1.4141987562179565,-0.35414978861808777,0.7670983672142029
-1.4143844842910767,-0.35302799940109253,0.756004273891449
-1.414569616317749,-0.3519265949726105,0.7449800372123718
-1.4147533178329468,-0.3508451581001282,0.7340238690376282
-1.414935827255249,-0.34978345036506653,0.7231343388557434
-1.4151172637939453,-0.3487412631511688,0.7123101353645325
-1.4152978658676147,-0.34771838784217834,0.7015500068664551
-1.4154772758483887,-0.34671446681022644,0.6908522844314575
-1.4156557321548462,-0.3457292914390564,0.6802157759666443
-1.4158331155776978,-0.3447626829147339,0.6696392297744751
-1.4160090684890747,-0.3438142240047455,0.6591209769248962
-1.416184902191162,-0.3428840637207031,0.64866042137146
-1.4163591861724854,-0.34197157621383667,0.6382555961608887
-1.4165326356887817,-0.3410767912864685,0.6279057264328003
-1.4167052507400513,-0.3401995003223419,0.6176095008850098
-1.416877269744873,-0.3393394649028778,0.6073658466339111
-1.4170480966567993,-0.3384964168071747,0.5971733331680298
-1.417217493057251,-0.33767011761665344,0.5870307087898254
-1.4173872470855713,-0.3368607461452484,0.5769375562667847
-1.4175556898117065,-0.33606773614883423,0.566892147064209
-1.4177230596542358,-0.3352909982204437,0.5568934082984924
-1.4178897142410278,-0.33453041315078735,0.5469404458999634
-1.4180561304092407,-0.3337859511375427,0.5370323061943054
-1.418221354484558,-0.333057165145874,0.5271676182746887
-1.4183862209320068,-0.3323441445827484,0.5173457860946655
-1.41854989528656,-0.33164650201797485,0.5075652599334717
-1.418713092803955,-0.33096426725387573,0.4978254735469818
-1.418875813484192,-0.3302972912788391,0.48812535405158997
-1.4190376996994019,-0.3296453356742859,0.4784638285636902
-1.419198989868164,-0.3290083408355713,0.4688400328159332
-1.419359803199768,-0.3283861577510834,0.4592530429363251
-1.4195200204849243,-0.3277786374092102,0.44970184564590454
-1.4196796417236328,-0.32718566060066223,0.4401856064796448
-1.4198384284973145,-0.32660701870918274,0.4307032525539398
-1.4199970960617065,-0.3260428011417389,0.4212542176246643
-1.4201548099517822,-0.32549265027046204,0.41183724999427795
-1.4203121662139893,-0.32495662569999695,0.402451753616333
-1.4204686880111694,-0.32443445920944214,0.3930966258049011
-1.4206249713897705,-0.3239262104034424,0.38377127051353455
-1.420781135559082,-0.3234318196773529,0.37447482347488403
-1.4209364652633667,-0.32295095920562744,0.365206241607666
-1.4210911989212036,-0.322483628988266,0.3559648096561432
-1.4212456941604614,-0.32202979922294617,0.34674981236457825
-1.4213998317718506,-0.3215893805027008,0.33756035566329956
-1.4215532541275024,-0.3211621344089508,0.3283956050872803
-1.4217063188552856,-0.32074809074401855,0.3192548453807831
-1.421859622001648,-0.32034730911254883,0.31013739109039307
-1.4220117330551147,-0.3199594020843506,0.30104219913482666
-1.422163963317871,-0.31958454847335815,0.29196876287460327
-1.4223155975341797,-0.31922248005867004,0.2829161584377289
-1.4224671125411987,-0.3188733160495758,0.27388375997543335
-1.4226176738739014,-0.31853675842285156,0.26487064361572266
-1.4227687120437622,-0.31821301579475403,0.2558763325214386
-1.4229191541671753,-0.3179018497467041,0.24689990282058716
-1.4230692386627197,-0.3176032304763794,0.23794065415859222
-1.4232189655303955,-0.31731706857681274,0.2289978712797165
-1.4233684539794922,-0.31704333424568176,0.22007085382938385
-1.4235179424285889,-0.3167820870876312,0.21115894615650177
-1.4236668348312378,-0.31653305888175964,0.2022613137960434
-1.4238158464431763,-0.31629642844200134,0.19337736070156097
-1.4239643812179565,-0.3160719871520996,0.1845063418149948
-1.4241127967834473,-0.31585976481437683,0.17564757168293
-1.424261450767517,-0.315659761428833,0.1668003797531128
-1.42440927028656,-0.3154717683792114,0.15796402096748352
-1.4245572090148926,-0.315295934677124,0.14913785457611084
-1.424704670906067,-0.3151320517063141,0.14032116532325745
-1.4248526096343994,-0.3149803578853607,0.13151335716247559
-1.4249998331069946,-0.31484052538871765,0.12271364778280258
-1.4251468181610107,-0.31471264362335205,0.11392141133546829
-1.4252941608428955,-0.3145968019962311,0.10513601452112198
-1.4254413843154907,-0.3144928514957428,0.09635674953460693
-1.4255882501602173,-0.3144007921218872,0.08758293837308884
-1.4257351160049438,-0.3143206238746643,0.07881394773721695
-1.4258817434310913,-0.31425225734710693,0.07004907727241516
-1.4260287284851074,-0.3141958713531494,0.061287712305784225
-1.4261751174926758,-0.31415116786956787,0.05252913758158684
-1.4263217449188232,-0.3141183853149414,0.04377273470163345
-1.4264687299728394,-0.31409752368927,0.035017840564250946
-1.4266152381896973,-0.3140884041786194,0.026263771578669548
-1.4267617464065552,-0.3140910863876343,0.017509879544377327
-1.4269084930419922,-0.31410565972328186,0.008755510672926903
-1.427054762840271,-0.3141319453716278,2.621370565987415e-16
-1.4272016286849976,-0.3141701817512512,-0.008757309056818485
-1.4273483753204346,-0.31422021985054016,-0.017517078667879105
-1.427495002746582,-0.314282089471817,-0.02627996727824211
-1.4276418685913086,-0.31435585021972656,-0.035046640783548355
-1.4277890920639038,-0.3144415616989136,-0.04381776973605156
-1.4279357194900513,-0.31453898549079895,-0.05259398743510246
-1.4280829429626465,-0.31464847922325134,-0.06137600168585777
-1.428229808807373,-0.3147697448730469,-0.07016442716121674
-1.4283771514892578,-0.3149030804634094,-0.07895999401807785
-1.4285244941711426,-0.31504833698272705,-0.08776333183050156
-1.428671956062317,-0.3152056336402893,-0.09657513350248337
-1.4288198947906494,-0.3153750002384186,-0.1053960844874382
-1.4289674758911133,-0.3155563473701477,-0.1142268180847168
-1.429115653038025,-0.3157498836517334,-0.12306808680295944
-1.4292638301849365,-0.3159555196762085,-0.13192051649093628
-1.4294124841690063,-0.31617337465286255,-0.1407848298549652
-1.4295611381530762,-0.31640344858169556,-0.14966171979904175
-1.429709792137146,-0.31664571166038513,-0.15855182707309723
-1.4298590421676636,-0.316900372505188,-0.16745594143867493
-1.430008053779602,-0.3171672821044922,-0.1763746738433838
-1.4301578998565674,-0.3174467384815216,-0.18530884385108948
-1.4303077459335327,-0.3177385926246643,-0.19425907731056213
-1.4304577112197876,-0.31804293394088745,-0.20322610437870026
-1.430607795715332,-0.3183598220348358,-0.21221062541007996
-1.4307591915130615,-0.31868958473205566,-0.22121356427669525
-1.4309096336364746,-0.3190317451953888,-0.23023530840873718
-1.431061029434204,-0.3193868398666382,-0.23927690088748932
-1.4312130212783813,-0.31975483894348145,-0.24833902716636658
-1.43136465549469,-0.32013556361198425,-0.2574222683906555
-1.431517243385315,-0.32052943110466003,-0.26652759313583374
-1.4316701889038086,-0.3209363520145416,-0.27565574645996094
-1.431823492050171,-0.3213564157485962,-0.28480738401412964
-1.4319771528244019,-0.3217897415161133,-0.2939833998680115
-1.4321308135986328,-0.32223623991012573,-0.3031844198703766
-2.1396968364715576,-0.4820772409439087,-0.46671274304389954
-1.4016990661621094,-0.499467670917511,1.6658616065979004
-1.4019250869750977,-0.49594101309776306,1.6455281972885132
-1.4021245241165161,-0.4924740195274353,1.6254520416259766
-1.4023739099502563,-0.48909178376197815,1.6057140827178955
-1.4025671482086182,-0.4857556223869324,1.586185097694397
-1.4027875661849976,-0.48249295353889465,1.566953420639038
-1.4030029773712158,-0.47929102182388306,1.5479753017425537
-1.4031832218170166,-0.4761381447315216,1.529211401939392
-1.4033849239349365,-0.4730522334575653,1.510717749595642
-1.403563141822815,-0.47001656889915466,1.4924391508102417
-1.4037567377090454,-0.46704304218292236,1.4744118452072144
-1.403936743736267,-0.4641205072402954,1.4565987586975098
-1.4041072130203247,-0.4612492322921753,1.438999056816101
-1.404274582862854,-0.45843008160591125,1.4216142892837524
-1.4045463800430298,-0.4556967616081238,1.4045463800430298
-1.4048292636871338,-0.45301738381385803,1.3876943588256836
-1.405109167098999,-0.45038631558418274,1.3710390329360962
-1.4053847789764404,-0.4478020668029785,1.35457444190979
