-1.4322947263717651,0.16044247150421143,-0.19452893733978271
-1.4324450492858887,0.16059617698192596,-0.2035084366798401
-1.4325953722000122,0.1607561856508255,-0.21250544488430023
-1.4327466487884521,0.16092264652252197,-0.22152084112167358
-1.4328972101211548,0.16109544038772583,-0.23055511713027954
-1.433048963546753,0.1612747460603714,-0.23960928618907928
-1.433200716972351,0.1614605188369751,-0.24868391454219818
-1.4333529472351074,0.1616528183221817,-0.2577798366546631
-1.4335052967071533,0.1618516445159912,-0.2668977677822113
-1.4336585998535156,0.16205714643001556,-0.27603858709335327
-1.4338117837905884,0.1622692197561264,-0.28520289063453674
-1.433965802192688,0.16248802840709686,-0.2943916618824005
-1.3925381898880005,0.28832513093948364,2.4581737518310547
-1.3929784297943115,0.285331130027771,2.4241461753845215
-1.3934526443481445,0.2824179232120514,2.3908908367156982
-1.3939526081085205,0.27958106994628906,2.358366012573242
-1.3943794965744019,0.27679845690727234,2.3263814449310303
-1.3948086500167847,0.2740829885005951,2.295044183731079
-1.3952528238296509,0.2714349627494812,2.2643520832061768
-1.3956409692764282,0.26883846521377563,2.2341701984405518
-1.3960636854171753,0.26630908250808716,2.204625368118286
-1.3964275121688843,0.26382705569267273,2.175550937652588
-1.3968485593795776,0.2614126205444336,2.1471104621887207
-1.3972487449645996,0.2590491473674774,2.1191647052764893
-1.3975809812545776,0.25672647356987,2.091627836227417
-1.3979774713516235,0.25446727871894836,2.064682722091675
-1.3982940912246704,0.2522438168525696,2.0381007194519043
-1.3986477851867676,0.2500757873058319,2.0120391845703125
-1.3989700078964233,0.24794946610927582,1.9863848686218262
-1.3993377685546875,0.24587711691856384,1.9612334966659546
-1.3996366262435913,0.24383728206157684,1.9364111423492432
-1.3999797105789185,0.24184854328632355,1.912063717842102
-1.4002747535705566,0.23989365994930267,1.888051986694336
-1.400558352470398,0.23797786235809326,1.8644152879714966
-1.4008662700653076,0.23610611259937286,1.8411903381347656
-1.4011443853378296,0.23426811397075653,1.8182944059371948
-1.4014383554458618,0.2324705570936203,1.7957772016525269
-1.4017008543014526,0.23070456087589264,1.773568034172058
-1.4019715785980225,0.22897572815418243,1.7517080307006836
-1.4022064208984375,0.22727593779563904,1.730133056640625
-1.4024701118469238,0.22561481595039368,1.7089147567749023
-1.4027148485183716,0.2239837795495987,1.6879853010177612
-1.4029762744903564,0.2223876565694809,1.6673794984817505
-1.4032028913497925,0.22081749141216278,1.6470280885696411
-1.4034029245376587,0.2192738652229309,1.6269340515136719
-1.4036527872085571,0.21776796877384186,1.6071784496307373
-1.403847336769104,0.2162827104330063,1.5876328945159912
-1.4040685892105103,0.21483011543750763,1.5683844089508057
-1.404284954071045,0.2134045660495758,1.5493897199630737
-1.4044660329818726,0.21200084686279297,1.530609369277954
-1.404668927192688,0.2106269747018814,1.5120998620986938
-1.4048479795455933,0.20927546918392181,1.4938054084777832
-1.4050416946411133,0.20795147120952606,1.4757614135742188
-1.4052218198776245,0.20665022730827332,1.4579321146011353
-1.4053928852081299,0.20537184178829193,1.4403167963027954
-1.4055943489074707,0.20412153005599976,1.422950267791748
-1.4058318138122559,0.2028995007276535,1.4058318138122559
-1.4061154127120972,0.20170657336711884,1.3889647722244263
-1.4063953161239624,0.20053504407405853,1.3722939491271973
-1.4066716432571411,0.19938446581363678,1.3558146953582764
-1.406944990158081,0.19825445115566254,1.3395229578018188
-1.4072154760360718,0.19714459776878357,1.3234145641326904
-1.4074832201004028,0.19605447351932526,1.3074849843978882
-1.407747507095337,0.19498354196548462,1.2917295694351196
-1.4080097675323486,0.19393165409564972,1.2761456966400146
-1.4082682132720947,0.19289812445640564,1.2607274055480957
-1.4085246324539185,0.19188284873962402,1.2454726696014404
-1.4087777137756348,0.1908852458000183,1.2303766012191772
-1.4090286493301392,0.18990515172481537,1.2154364585876465
-1.4092769622802734,0.18894213438034058,1.2006484270095825
-1.4095227718353271,0.18799588084220886,1.1860089302062988
-1.4097658395767212,0.18706601858139038,1.171514630317688
-1.4100066423416138,0.18615229427814484,1.1571625471115112
-1.4102452993392944,0.18525442481040955,1.1429495811462402
-1.4104816913604736,0.18437209725379944,1.1288726329803467
-1.410715937614441,0.18350499868392944,1.1149286031723022
-1.4109476804733276,0.18265283107757568,1.1011143922805786
-1.4111772775650024,0.18181535601615906,1.0874273777008057
-1.411405086517334,0.18099234998226166,1.0738649368286133
-1.4116312265396118,0.180183544754982,1.060424566268921
-1.4118545055389404,0.17938858270645142,1.047102689743042
-1.4120761156082153,0.1786072999238968,1.0338975191116333
-1.4122962951660156,0.17783953249454498,1.0208066701889038
-1.4125139713287354,0.17708492279052734,1.0078270435333252
-1.4127297401428223,0.17634326219558716,0.9949564933776855
-1.4129441976547241,0.17561444640159607,0.9821932315826416
-1.4131566286087036,0.1748981475830078,0.9695343375205994
-1.4133678674697876,0.17419426143169403,0.9569782018661499
-1.413576602935791,0.17350243031978607,0.9445216655731201
-1.4137834310531616,0.1728225201368332,0.9321630597114563
-1.4139900207519531,0.17215454578399658,0.919901430606842
-1.4141937494277954,0.17149798572063446,0.9077328443527222
-1.4143965244293213,0.1708528995513916,0.8956567049026489
-1.4145981073379517,0.1702190637588501,0.8836708068847656
-1.4147975444793701,0.16959619522094727,0.8717727065086365
-1.4149954319000244,0.16898420453071594,0.8599607944488525
-1.4151923656463623,0.16838297247886658,0.8482336401939392
-1.4153878688812256,0.16779230535030365,0.8365892171859741
-1.4155818223953247,0.16721202433109283,0.8250256776809692
-1.4157743453979492,0.166641965508461,0.8135413527488708
-1.415966272354126,0.16608209908008575,0.8021349310874939
-1.4161555767059326,0.16553203761577606,0.790803849697113
-1.4163447618484497,0.16499193012714386,0.7795476913452148
-1.4165325164794922,0.16446149349212646,0.7683643102645874
-1.4167187213897705,0.16394056379795074,0.7572519183158875
-1.416904330253601,0.1634291261434555,0.7462096214294434
-1.417088270187378,0.16292691230773926,0.735235333442688
-1.4172712564468384,0.16243389248847961,0.7243279218673706
-1.4174530506134033,0.16194993257522583,0.7134858965873718
-1.4176338911056519,0.16147491335868835,0.7027079463005066
-1.4178138971328735,0.16100873053073883,0.6919927000999451
-1.4179925918579102,0.16055123507976532,0.6813386678695679
-1.41817045211792,0.16010236740112305,0.6707446575164795
-1.4183467626571655,0.1596619337797165,0.6602091193199158
-1.418522834777832,0.15922996401786804,0.6497312188148499
-1.4186978340148926,0.15880629420280457,0.6393095254898071
-1.418871283531189,0.15839073061943054,0.6289424300193787
-1.4190444946289062,0.15798334777355194,0.6186292767524719
-1.4192167520523071,0.15758395195007324,0.6083686947822571
-1.419387936592102,0.15719246864318848,0.5981593728065491
-1.4195579290390015,0.1568087786436081,0.5880001783370972
-1.4197278022766113,0.1564328968524933,0.5778902769088745
-1.4198968410491943,0.15606467425823212,0.567828357219696
-1.4200644493103027,0.15570397675037384,0.5578131079673767
-1.420231580734253,0.15535080432891846,0.5478438138961792
-1.4203978776931763,0.15500502288341522,0.5379191637039185
-1.4205635786056519,0.15466661751270294,0.5280382633209229
-1.4207289218902588,0.15433552861213684,0.5182002782821655
-1.4208927154541016,0.154011532664299,0.5084035396575928
-1.4210567474365234,0.1536947637796402,0.4986478388309479
-1.4212192296981812,0.1533849835395813,0.4889315366744995
-1.4213817119598389,0.15308226644992828,0.4792541563510895
-1.4215433597564697,0.15278644859790802,0.4696144759654999
-1.4217042922973633,0.15249750018119812,0.4600116014480591
-1.4218647480010986,0.1522153913974762,0.45044466853141785
-1.4220249652862549,0.15194004774093628,0.44091281294822693
-1.4221837520599365,0.15167132019996643,0.43141472339630127
-1.4223426580429077,0.1514092981815338,0.4219500720500946
-1.4225006103515625,0.1511538177728653,0.4125175476074219
-1.4226583242416382,0.15090489387512207,0.40311652421951294
-1.4228150844573975,0.1506624072790146,0.39374595880508423
-1.4229717254638672,0.15042640268802643,0.3844051957130432
-1.4231280088424683,0.15019680559635162,0.37509337067604065
-1.4232836961746216,0.14997351169586182,0.36580953001976013
-1.4234387874603271,0.14975649118423462,0.3565528392791748
-1.423593521118164,0.14954574406147003,0.34732261300086975
-1.4237477779388428,0.14934119582176208,0.33811795711517334
-1.4239013195037842,0.149142786860466,0.3289380371570587
-1.4240549802780151,0.14895054697990417,0.3197822570800781
-1.4242085218429565,0.14876443147659302,0.3106497526168823
-1.4243608713150024,0.1485842764377594,0.30153951048851013
-1.4245131015777588,0.14841018617153168,0.29245102405548096
-1.4246653318405151,0.14824208617210388,0.2833835482597351
-1.4248169660568237,0.14807993173599243,0.27433621883392334
-1.424967885017395,0.14792363345623016,0.2653082013130188
-1.4251192808151245,0.14777331054210663,0.25629904866218567
-1.4252698421478271,0.1476287990808487,0.24730779230594635
-1.4254202842712402,0.14749012887477875,0.23833374679088593
-1.425570011138916,0.14735721051692963,0.2293761521577835
-1.4257197380065918,0.1472301036119461,0.22043439745903015
-1.4258695840835571,0.1471087783575058,0.21150776743888855
-1.4260187149047852,0.14699314534664154,0.20259544253349304
-1.4261679649353027,0.14688324928283691,0.19369682669639587
-1.426316738128662,0.14677901566028595,0.18481113016605377
-1.426465630531311,0.14668048918247223,0.17593775689601898
-1.4266141653060913,0.14658759534358978,0.16707593202590942
-1.4267624616622925,0.14650031924247742,0.15822498500347137
-1.426910638809204,0.14641864597797394,0.14938423037528992
-1.427058458328247,0.14634256064891815,0.14055298268795013
-1.4272063970565796,0.14627209305763245,0.1317306011915207
-1.427354097366333,0.14620718359947205,0.12291638553142548
-1.4275012016296387,0.14614777266979218,0.11410961300134659
-1.427648901939392,0.14609399437904358,0.10530970990657806
-1.427796483039856,0.1460457444190979,0.0965159460902214
-1.4279433488845825,0.14600294828414917,0.0877276286482811
-1.4280906915664673,0.14596574008464813,0.07894415408372879
-1.4282374382019043,0.14593398571014404,0.07016480714082718
-1.42838454246521,0.14590778946876526,0.06138896197080612
-1.4285314083099365,0.14588706195354462,0.0526159293949604
-1.4286781549453735,0.1458718329668045,0.043845053762197495
-1.4288253784179688,0.1458621323108673,0.03507569432258606
-1.4289720058441162,0.14585788547992706,0.026307160034775734
-1.4291189908981323,0.14585915207862854,0.017538810148835182
-1.4292658567428589,0.14586591720581055,0.00876997597515583
-1.429412841796875,0.1458781659603119,2.6257020807214366e-16
-1.429559588432312,0.14589588344097137,-0.008771777153015137
-1.4297065734863281,0.14591912925243378,-0.017546020448207855
-1.4298535585403442,0.14594785869121552,-0.026323387399315834
-1.4300003051757812,0.1459820717573166,-0.03510453552007675
-1.4301477670669556,0.14602188766002655,-0.04389015585184097
-1.4302949905395508,0.14606715738773346,-0.052680883556604385
-1.4304423332214355,0.14611798524856567,-0.06147739663720131
-1.4305893182754517,0.14617429673671722,-0.07028034329414368
-1.430737018585205,0.14623622596263885,-0.07909044623374939
-1.430884599685669,0.1463036835193634,-0.08790833503007889
-1.4310322999954224,0.14637671411037445,-0.0967346802353859
-1.431180477142334,0.14645539224147797,-0.1055702194571495
-1.431328296661377,0.1465395838022232,-0.11441553384065628
-1.4314764738082886,0.1466294378042221,-0.1232713833451271
-1.4316247701644897,0.14672492444515228,-0.1321384161710739
-1.4317735433578491,0.14682608842849731,-0.1410173922777176
-1.431922435760498,0.1469329297542572,-0.14990893006324768
-1.4320714473724365,0.14704543352127075,-0.1588137298822403
-1.4322209358215332,0.14716368913650513,-0.16773255169391632
-1.4323701858520508,0.14728763699531555,-0.1766660064458847
-1.4325200319290161,0.14741739630699158,-0.1856149137020111
-1.43267023563385,0.14755293726921082,-0.19457994401454926
-1.4328206777572632,0.14769428968429565,-0.20356179773807526
-1.4329707622528076,0.1478414237499237,-0.21256113052368164
-1.433122158050537,0.1479945331811905,-0.22157889604568481
-1.4332730770111084,0.14815345406532288,-0.23061558604240417
-1.433424472808838,0.1483183354139328,-0.23967207968235016
-1.4335765838623047,0.14848920702934265,-0.24874913692474365
-1.433728814125061,0.14866605401039124,-0.2578474283218384
-1.4338812828063965,0.14884890615940094,-0.2669677436351776
-1.4340343475341797,0.14903788268566132,-0.2761109471321106
-1.434187650680542,0.1492329090833664,-0.28527766466140747
-1.4343416690826416,0.1494341343641281,-0.29446882009506226
-1.390438437461853,0.2715751826763153,2.563369035720825
-1.3909705877304077,0.2686452865600586,2.527226686477661
-1.391479730606079,0.2657856047153473,2.4918336868286133
-1.3920009136199951,0.2630002498626709,2.4572253227233887
-1.3924412727355957,0.26026928424835205,2.4232113361358643
-1.3929153680801392,0.2576119601726532,2.3899688720703125
-1.393415093421936,0.2550242841243744,2.3574564456939697
-1.3938418626785278,0.25248607993125916,2.32548451423645
-1.3942710161209106,0.250009149312973,2.294159412384033
-1.3947166204452515,0.2475939840078354,2.263481855392456
-1.3951096534729004,0.2452264279127121,2.2333197593688965
-1.3955330848693848,0.24291938543319702,2.2037875652313232
-1.3958967924118042,0.24065536260604858,2.1747241020202637
-1.3963181972503662,0.23845303058624268,2.1462950706481934
-1.3967186212539673,0.23629721999168396,2.118360757827759
-1.3970507383346558,0.2341785430908203,2.090834140777588
-1.397446870803833,0.23211777210235596,2.063899278640747
-1.3977636098861694,0.23008960485458374,2.037327527999878
-1.3981167078018188,0.22811192274093628,2.011275053024292
-1.398438811302185,0.2261723428964615,1.9856305122375488
-1.398806095123291,0.22428195178508759,1.9604883193969727
-1.3991049528121948,0.2224213033914566,1.9356757402420044
-1.3994479179382324,0.2206072360277176,1.9113373756408691
-1.3997427225112915,0.21882401406764984,1.8873345851898193
-1.4000262022018433,0.21707649528980255,1.8637070655822754
-1.4003340005874634,0.2153691053390503,1.840490698814392
-1.4006118774414062,0.2136925458908081,1.8176034688949585
-1.4009058475494385,0.21205288171768188,1.7950949668884277
-1.401167869567871,0.2104419320821762,1.7728936672210693
-1.4014387130737305,0.2088649570941925,1.7510422468185425
-1.4016733169555664,0.20731446146965027,1.7294753789901733
-1.4019365310668945,0.2057991921901703,1.708264708518982
-1.402181625366211,0.20431144535541534,1.6873435974121094
-1.4024428129196167,0.20285549759864807,1.6667455434799194
-1.4026694297790527,0.20142324268817902,1.6464018821716309
-1.4028693437576294,0.20001518726348877,1.6263154745101929
-1.4031192064285278,0.1986415684223175,1.6065675020217896
-1.4033129215240479,0.1972866654396057,1.5870286226272583
-1.4035340547561646,0.19596163928508759,1.5677872896194458
-1.4037500619888306,0.1946612447500229,1.5487995147705078
-1.4039310216903687,0.19338080286979675,1.5300263166427612
-1.4041335582733154,0.19212758541107178,1.5115236043930054
-1.4043123722076416,0.1908947378396988,1.4932358264923096
-1.4045064449310303,0.1896870881319046,1.4751992225646973
-1.404686450958252,0.18850012123584747,1.4573765993118286
-1.4048569202423096,0.18733395636081696,1.4397674798965454
-1.4050575494766235,0.18619336187839508,1.4224069118499756
-1.4052945375442505,0.18507860600948334,1.4052945375442505
-1.4055777788162231,0.18399043381214142,1.388433814048767
-1.405858039855957,0.1829218566417694,1.371769666671753
-1.4061338901519775,0.18187227845191956,1.3552963733673096
-1.406407117843628,0.18084152042865753,1.3390108346939087
-1.4066776037216187,0.17982915043830872,1.322908639907837
-1.4069451093673706,0.17883476614952087,1.3069851398468018
-1.4072093963623047,0.1778579205274582,1.2912359237670898
-1.4074715375900269,0.17689841985702515,1.2756578922271729
-1.407729983329773,0.17595568299293518,1.260245680809021
-1.407986044883728,0.17502953112125397,1.244996428489685
-1.4082391262054443,0.17411956191062927,1.2299062013626099
-1.4084900617599487,0.17322556674480438,1.214971899986267
-1.408738374710083,0.17234712839126587,1.200189471244812
-1.4089839458465576,0.17148396372795105,1.1855555772781372
-1.4092271327972412,0.17063580453395844,1.1710669994354248
-1.4094676971435547,0.16980232298374176,1.1567201614379883
-1.4097062349319458,0.1689833104610443,1.1425126791000366
-1.4099425077438354,0.1681784689426422,1.1284410953521729
-1.4101765155792236,0.16738751530647278,1.1145023107528687
-1.4104082584381104,0.16661019623279572,1.1006933450698853
-1.4106377363204956,0.16584627330303192,1.0870115756988525
-1.4108655452728271,0.16509556770324707,1.0734543800354004
-1.4110914468765259,0.16435779631137848,1.0600190162658691
-1.4113147258758545,0.16363266110420227,1.0467023849487305
-1.4115363359451294,0.1629200130701065,1.033502221107483
-1.411756157875061,0.16221965849399567,1.0204163789749146
-1.4119737148284912,0.16153129935264587,1.007441520690918
-1.4121896028518677,0.16085481643676758,0.994576096534729
-1.4124038219451904,0.16018998622894287,0.9818176031112671
-1.41261625289917,0.15953661501407623,0.9691635966300964
-1.4128272533416748,0.15889453887939453,0.9566121697425842
-1.4130359888076782,0.15826348960399628,0.944160521030426
-1.4132428169250488,0.15764328837394714,0.9318066239356995
-1.4134492874145508,0.1570339798927307,0.9195495843887329
-1.4136528968811035,0.15643508732318878,0.9073857069015503
-1.4138555526733398,0.15584665536880493,0.8953141570091248
-1.4140570163726807,0.15526847541332245,0.8833327889442444
-1.4142565727233887,0.1547003537416458,0.8714393377304077
-1.4144543409347534,0.1541420966386795,0.8596318960189819
-1.4146509170532227,0.15359364449977875,0.847909152507782
-1.414846420288086,0.1530548632144928,0.836269199848175
-1.4150404930114746,0.15252555906772614,0.8247101306915283
-1.4152330160140991,0.15200559794902802,0.8132302761077881
-1.4154249429702759,0.15149490535259247,0.8018283247947693
-1.4156140089035034,0.15099315345287323,0.7905014753341675
-1.415803074836731,0.15050047636032104,0.7792496085166931
-1.4159908294677734,0.1500166356563568,0.7680705189704895
-1.4161767959594727,0.14954142272472382,0.756962239742279
-1.4163622856140137,0.14907491207122803,0.745924174785614
-1.4165462255477905,0.14861680567264557,0.7349540591239929
-1.416729211807251,0.14816710352897644,0.7240509390830994
-1.416911005973816,0.1477256566286087,0.7132130861282349
-1.417091727256775,0.1472923457622528,0.7024391889572144
-1.4172717332839966,0.14686712622642517,0.6917281150817871
-1.417450189590454,0.14644980430603027,0.6810780763626099
-1.4176279306411743,0.14604035019874573,0.6704881191253662
-1.4178043603897095,0.1456386148929596,0.6599566340446472
-1.4179803133010864,0.14524458348751068,0.6494827270507812
-1.4181550741195679,0.14485809206962585,0.6390649080276489
-1.4183287620544434,0.14447906613349915,0.6287018656730652
-1.4185017347335815,0.14410744607448578,0.6183927059173584
-1.4186736345291138,0.1437431126832962,0.6081358790397644
-1.4188449382781982,0.14338602125644684,0.5979305505752563
-1.4190149307250977,0.14303603768348694,0.5877752304077148
-1.4191848039627075,0.1426931917667389,0.5776692628860474
-1.4193536043167114,0.14235728979110718,0.5676110982894897
-1.4195212125778198,0.14202825725078583,0.5575997233390808
-1.41968834400177,0.14170610904693604,0.5476342439651489
-1.4198546409606934,0.14139071106910706,0.5377134084701538
-1.4200201034545898,0.1410820186138153,0.527836263179779
-1.4201855659484863,0.1407800167798996,0.5180020332336426
-1.42034912109375,0.14048448204994202,0.5082090497016907
-1.4205131530761719,0.1401955485343933,0.4984571039676666
-1.4206756353378296,0.13991296291351318,0.4887445271015167
-1.4208381175994873,0.1396368443965912,0.47907090187072754
-1.420999526977539,0.1393669992685318,0.46943485736846924
-1.4211604595184326,0.13910344243049622,0.45983564853668213
-1.4213210344314575,0.13884609937667847,0.45027241110801697
-1.4214810132980347,0.13859494030475616,0.4407441318035126
-1.4216398000717163,0.13834981620311737,0.4312497079372406
-1.4217987060546875,0.13811081647872925,0.42178866267204285
-1.4219565391540527,0.13787776231765747,0.41235974431037903
-1.4221142530441284,0.137650728225708,0.4029623866081238
-1.4222708940505981,0.13742952048778534,0.3935953676700592
-1.4224274158477783,0.13721424341201782,0.3842581808567047
-1.422583818435669,0.1370048224925995,0.37494996190071106
-1.4227392673492432,0.1368011236190796,0.3656696081161499
-1.4228941202163696,0.13660314679145813,0.35641640424728394
-1.4230488538742065,0.1364109218120575,0.3471897542476654
-1.423203468322754,0.13622437417507172,0.3379886746406555
-1.4233567714691162,0.13604336977005005,0.32881221175193787
-1.4235103130340576,0.13586801290512085,0.319659948348999
-1.4236637353897095,0.13569824397563934,0.3105309307575226
-1.4238160848617554,0.1355339139699936,0.30142417550086975
-1.4239683151245117,0.13537511229515076,0.2923392057418823
-1.4241200685501099,0.13522173464298248,0.2832750976085663
-1.424271821975708,0.13507384061813354,0.2742312550544739
-1.4244227409362793,0.134931281208992,0.2652067244052887
-1.4245738983154297,0.13479414582252502,0.25620099902153015
-1.4247246980667114,0.13466235995292664,0.2472131997346878
-1.424875020980835,0.13453586399555206,0.23824258148670197
-1.4250247478485107,0.13441461324691772,0.22928841412067413
-1.425174355506897,0.1342986822128296,0.22035008668899536
-1.4253242015838623,0.13418801128864288,0.21142688393592834
-1.4254732131958008,0.13408252596855164,0.20251794159412384
-1.4256224632263184,0.13398230075836182,0.19362273812294006
-1.4257712364196777,0.13388723134994507,0.18474045395851135
-1.425920009613037,0.13379733264446259,0.17587046325206757
-1.4260683059692383,0.13371257483959198,0.16701199114322662
-1.4262166023254395,0.13363297283649445,0.15816444158554077
-1.4263646602630615,0.1335584819316864,0.14932706952095032
-1.4265122413635254,0.13348905742168427,0.14049918949604034
-1.4266605377197266,0.1334248185157776,0.13168023526668549
-1.4268081188201904,0.13336560130119324,0.12286937236785889
-1.426955223083496,0.1333114206790924,0.11406596750020981
-1.42710280418396,0.13326235115528107,0.1052694246172905
-1.4272500276565552,0.13321830332279205,0.09647901356220245
-1.4273972511291504,0.13317932188510895,0.08769408613443375
-1.4275442361831665,0.13314534723758698,0.07891394942998886
-1.4276909828186035,0.13311639428138733,0.07013796269893646
-1.4278380870819092,0.1330924928188324,0.06136547774076462
-1.4279850721359253,0.1330735981464386,0.05259580537676811
-1.4281318187713623,0.13305971026420593,0.04382828623056412
-1.428278923034668,0.1330508589744568,0.0350622795522213
-1.4284254312515259,0.1330469846725464,0.02629709802567959
-1.4285722970962524,0.1330481320619583,0.017532099038362503
-1.4287192821502686,0.13305431604385376,0.00876662228256464
-1.428865909576416,0.13306546211242676,2.624697287887756e-16
-1.4290127754211426,0.13308164477348328,-0.008768422529101372
-1.4291595220565796,0.13310283422470093,-0.017539307475090027
-1.4293063879013062,0.1331290304660797,-0.026313314214348793
-1.4294532537460327,0.13316026329994202,-0.035091109573841095
-1.429600715637207,0.13319656252861023,-0.043873365968465805
-1.4297477006912231,0.13323786854743958,-0.05266072601079941
-1.429895043373108,0.13328422605991364,-0.06145387515425682
-1.4300421476364136,0.13333560526371002,-0.07025346904993057
-1.430189847946167,0.1333920955657959,-0.07906019687652588
-1.4303371906280518,0.1334536224603653,-0.08787469565868378
-1.430484652519226,0.1335202306509018,-0.09669766575098038
-1.4306329488754272,0.13359199464321136,-0.10552982240915298
-1.4307806491851807,0.13366879522800446,-0.11437176167964935
-1.4309288263320923,0.1337507665157318,-0.12322422116994858
-1.431077003479004,0.13383784890174866,-0.1320878565311432
-1.4312258958816528,0.13393014669418335,-0.14096345007419586
-1.4313746690750122,0.1340276002883911,-0.14985157549381256
-1.4315236806869507,0.13413022458553314,-0.15875299274921417
-1.4316730499267578,0.1342380940914154,-0.1676683872938156
-1.4318221807479858,0.13435114920139313,-0.1765984147787094
-1.4319722652435303,0.13446953892707825,-0.1855439394712448
-1.4321222305297852,0.1345931440591812,-0.1945054978132248
-1.4322724342346191,0.13472208380699158,-0.20348390936851501
-1.4324226379394531,0.13485629856586456,-0.212479829788208
-1.432573914527893,0.1349959522485733,-0.2214941382408142
-1.4327245950698853,0.13514091074466705,-0.2305273413658142
-1.4328759908676147,0.13529130816459656,-0.23958036303520203
-1.4330281019210815,0.1354471743106842,-0.24865396320819855
-1.4331800937652588,0.1356084644794464,-0.2577487528324127
-1.433332920074463,0.13577531278133392,-0.26686564087867737
-1.4334858655929565,0.13594767451286316,-0.2760053277015686
-1.4336390495300293,0.1361255794763565,-0.28516852855682373
-1.4337929487228394,0.13630913197994232,-0.29435616731643677
-1.390742301940918,0.245635986328125,2.5639290809631348
-1.3912726640701294,0.24298562109470367,2.527775526046753
-1.3917815685272217,0.24039900302886963,2.4923741817474365
-1.3923027515411377,0.237879678606987,2.4577579498291016
-1.3927429914474487,0.23540952801704407,2.423736572265625
-1.3932175636291504,0.2330060750246048,2.3904874324798584
-1.3937172889709473,0.23066556453704834,2.3579678535461426
-1.3941441774368286,0.2283697873353958,2.325989007949829
-1.3945748805999756,0.2261296808719635,2.294659376144409
-1.3950217962265015,0.22394539415836334,2.26397705078125
-1.395416021347046,0.22180414199829102,2.2338101863861084
-1.3958396911621094,0.21971747279167175,2.2042717933654785
-1.3962035179138184,0.21766969561576843,2.175201892852783
-1.3966249227523804,0.21567772328853607,2.1467666625976562
-1.3970258235931396,0.21372787654399872,2.1188266277313232
-1.3973578214645386,0.21181151270866394,2.0912938117980957
-1.3977540731430054,0.20994757115840912,2.0643527507781982
-1.3980708122253418,0.20811311900615692,2.0377750396728516
-1.3984241485595703,0.20632435381412506,2.0117173194885254
-1.398746371269226,0.20457004010677338,1.986067295074463
-1.399113655090332,0.20286020636558533,1.9609193801879883
-1.3994121551513672,0.2011771947145462,1.936100721359253
-1.3997552394866943,0.19953641295433044,1.911757230758667
-1.4000502824783325,0.19792352616786957,1.887749195098877
-1.4003336429595947,0.19634290039539337,1.8641163110733032
-1.4006412029266357,0.1947985589504242,1.8408945798873901
-1.4009194374084473,0.19328215718269348,1.818002462387085
-1.40121328830719,0.1917990744113922,1.795488953590393
-1.4014756679534912,0.1903420388698578,1.7732831239700317
-1.401746392250061,0.1889156550168991,1.7514266967773438
-1.401980996131897,0.18751323223114014,1.7298550605773926
-1.4022444486618042,0.1861427277326584,1.7086398601531982
-1.402489423751831,0.18479706346988678,1.6877139806747437
-1.4027506113052368,0.1834801584482193,1.6671113967895508
-1.4029772281646729,0.18218469619750977,1.6467632055282593
-1.4031773805618286,0.18091115355491638,1.6266725063323975
-1.4034268856048584,0.17966869473457336,1.606919765472412
-1.4036210775375366,0.17844325304031372,1.5873771905899048
-1.4038419723510742,0.17724473774433136,1.5681312084197998
-1.4040579795837402,0.17606855928897858,1.5491392612457275
-1.4042388200759888,0.17491039633750916,1.5303617715835571
-1.4044413566589355,0.17377685010433197,1.511854887008667
-1.4046200513839722,0.17266175150871277,1.4935630559921265
-1.4048140048980713,0.17156943678855896,1.4755222797393799
-1.404994010925293,0.17049582302570343,1.457695722579956
-1.405164361000061,0.16944102942943573,1.4400825500488281
-1.4053314924240112,0.16840535402297974,1.4226841926574707
-1.4056016206741333,0.1674010306596756,1.4056016206741333
-1.4058849811553955,0.16641680896282196,1.3887372016906738
-1.4061651229858398,0.16545027494430542,1.372069239616394
-1.4064412117004395,0.16450096666812897,1.3555924892425537
-1.4067144393920898,0.1635686606168747,1.3393034934997559
-1.4069852828979492,0.16265302896499634,1.3231980800628662
-1.407252550125122,0.1617535650730133,1.3072707653045654
-1.4075168371200562,0.1608700156211853,1.291517972946167
-1.4077789783477783,0.16000214219093323,1.275936484336853
-1.408037543296814,0.15914946794509888,1.2605209350585938
-1.4082937240600586,0.15831178426742554,1.2452685832977295
-1.4085466861724854,0.15748871862888336,1.2301748991012573
-1.4087977409362793,0.15668010711669922,1.2152372598648071
-1.4090461730957031,0.15588559210300446,1.2004517316818237
-1.4092918634414673,0.1551048904657364,1.1858147382736206
-1.4095349311828613,0.15433770418167114,1.1713227033615112
-1.4097756147384644,0.1535838395357132,1.1569730043411255
-1.410014271736145,0.15284305810928345,1.142762303352356
-1.4102506637573242,0.1521150916814804,1.1286877393722534
-1.410484790802002,0.15139970183372498,1.114745855331421
-1.4107164144515991,0.15069662034511566,1.1009339094161987
-1.4109458923339844,0.15000565350055695,1.0872490406036377
-1.4111735820770264,0.1493266224861145,1.0736887454986572
-1.4113997220993042,0.148659348487854,1.0602506399154663
-1.411623239517212,0.1480034738779068,1.0469311475753784
-1.4118447303771973,0.14735889434814453,1.0337281227111816
-1.4120646715164185,0.14672543108463287,1.0206393003463745
-1.4122822284698486,0.14610281586647034,1.0076617002487183
-1.412498116493225,0.14549094438552856,0.9947934150695801
-1.4127122163772583,0.14488960802555084,0.9820320010185242
-1.412924885749817,0.14429865777492523,0.9693753719329834
-1.4131358861923218,0.1437178999185562,0.956821084022522
-1.4133446216583252,0.14314711093902588,0.9443666338920593
-1.4135515689849854,0.14258617162704468,0.9320102334022522
-1.4137578010559082,0.14203502237796783,0.9197503328323364
-1.4139617681503296,0.14149336516857147,0.9075839519500732
-1.4141643047332764,0.14096112549304962,0.8955097198486328
-1.4143657684326172,0.14043816924095154,0.8835257291793823
-1.4145655632019043,0.1399243175983429,0.8716297149658203
-1.4147632122039795,0.13941936194896698,0.8598195910453796
-1.4149600267410278,0.13892333209514618,0.8480944037437439
-1.4151556491851807,0.13843600451946259,0.8364519476890564
-1.4153497219085693,0.13795726001262665,0.8248903751373291
-1.4155420064926147,0.13748693466186523,0.813407838344574
-1.415733814239502,0.13702499866485596,0.8020032644271851
-1.4159231185913086,0.13657118380069733,0.790674090385437
-1.4161126613616943,0.1361256092786789,0.7794199585914612
-1.4163000583648682,0.1356879472732544,0.7682381868362427
-1.416486144065857,0.13525813817977905,0.757127583026886
-1.4166717529296875,0.13483618199825287,0.7460871338844299
-1.4168555736541748,0.13442184031009674,0.7351146340370178
-1.4170384407043457,0.1340150535106659,0.7242089509963989
-1.4172203540802002,0.13361579179763794,0.713368833065033
-1.4174013137817383,0.13322387635707855,0.702592670917511
-1.4175812005996704,0.13283924758434296,0.691879153251648
-1.417759656906128,0.1324617862701416,0.6812267899513245
-1.4179376363754272,0.1320914626121521,0.6706345677375793
-1.4181139469146729,0.13172808289527893,0.6601006984710693
-1.4182900190353394,0.13137169182300568,0.6496245861053467
-1.4184648990631104,0.1310221254825592,0.6392045021057129
-1.4186383485794067,0.13067927956581116,0.6288391351699829
-1.4188114404678345,0.13034316897392273,0.6185277104377747
-1.4189836978912354,0.13001367449760437,0.6082687973976135
-1.4191547632217407,0.12969066202640533,0.5980611443519592
-1.4193249940872192,0.12937411665916443,0.5879036784172058
-1.419494867324829,0.12906400859355927,0.5777954459190369
-1.4196635484695435,0.1287601739168167,0.5677350759506226
-1.4198312759399414,0.12846258282661438,0.5577214956283569
-1.419998049736023,0.1281711757183075,0.5477536916732788
-1.4201648235321045,0.12788593769073486,0.5378308892250061
-1.420330286026001,0.12760671973228455,0.5279515385627747
-1.420495867729187,0.12733356654644012,0.518115222454071
-1.4206593036651611,0.1270662397146225,0.5083200335502625
-1.4208229780197144,0.1268048733472824,0.49856582283973694
-1.4209859371185303,0.12654933333396912,0.48885127902030945
-1.4211485385894775,0.12629957497119904,0.47917553782463074
-1.4213098287582397,0.126055508852005,0.4695373475551605
-1.4214708805084229,0.12581712007522583,0.45993608236312866
-1.4216316938400269,0.12558437883853912,0.45037081837654114
-1.4217913150787354,0.12535716593265533,0.44084033370018005
-1.421950101852417,0.12513546645641327,0.43134385347366333
-1.4221091270446777,0.12491929531097412,0.4218807518482208
-1.4222670793533325,0.12470851838588715,0.41244980692863464
-1.422424554824829,0.12450313568115234,0.4030503034591675
-1.422581434249878,0.12430308014154434,0.39368128776550293
-1.4227380752563477,0.12410836666822433,0.38434210419654846
-1.4228942394256592,0.12391892075538635,0.3750317692756653
-1.423050045967102,0.12373470515012741,0.36574944853782654
-1.423205018043518,0.12355566024780273,0.35649430751800537
-1.4233595132827759,0.12338175624608994,0.3472655117511749
-1.4235142469406128,0.1232130378484726,0.33806249499320984
-1.4236677885055542,0.12304934114217758,0.3288840651512146
-1.4238210916519165,0.12289071083068848,0.3197297155857086
-1.4239745140075684,0.12273715436458588,0.3105987012386322
-1.4241269826889038,0.12258853018283844,0.30149000883102417
-1.4242792129516602,0.12244489043951035,0.2924030125141144
-1.4244310855865479,0.12230618298053741,0.28333696722984314
-1.424582839012146,0.12217239290475845,0.27429112792015076
-1.4247337579727173,0.12204345315694809,0.265264630317688
-1.4248852729797363,0.12191943824291229,0.25625696778297424
-1.4250357151031494,0.12180020660161972,0.24726715683937073
-1.425186038017273,0.12168578803539276,0.2382945865392685
-1.4253361225128174,0.12157616019248962,0.22933851182460785
-1.425485610961914,0.12147127091884613,0.2203981876373291
-1.4256354570388794,0.12137118726968765,0.21147304773330688
-1.4257844686508179,0.12127576768398285,0.202562153339386
-1.4259337186813354,0.12118510901927948,0.193665012717247
-1.4260823726654053,0.12109910696744919,0.1847807765007019
-1.4262312650680542,0.12101780623197556,0.17590884864330292
-1.426379919052124,0.1209411695599556,0.16704848408699036
-1.426527976989746,0.12086914479732513,0.15819896757602692
-1.4266760349273682,0.12080176919698715,0.14935967326164246
-1.4268237352371216,0.12073898315429688,0.14052987098693848
-1.4269720315933228,0.12068087607622147,0.13170897960662842
-1.4271196126937866,0.12062730640172958,0.12289618700742722
-1.4272668361663818,0.12057831138372421,0.11409087479114532
-1.4274144172668457,0.12053393572568893,0.1052924171090126
-1.4275617599487305,0.12049409747123718,0.09650008380413055
-1.4277089834213257,0.12045883387327194,0.08771323412656784
-1.4278559684753418,0.12042810767889023,0.07893118262290955
-1.4280027151107788,0.12040190398693085,0.07015327364206314
-1.428149938583374,0.12038029730319977,0.06137887388467789
-1.428296685218811,0.12036319077014923,0.052607279270887375
-1.4284435510635376,0.12035063654184341,0.04383785277605057
-1.4285907745361328,0.12034264206886292,0.03506993502378464
-1.4287374019622803,0.12033913284540176,0.026302838698029518
-1.4288840293884277,0.12034016102552414,0.017535926774144173
-1.4290310144424438,0.12034574151039124,0.0087685352191329
-1.4291777610778809,0.12035583704710007,2.625270358616133e-16
-1.4293248653411865,0.12037048488855362,-0.008770337328314781
-1.4294718503952026,0.1203896626830101,-0.017543138936161995
-1.42961847782135,0.12041334807872772,-0.02631906047463417
-1.4297655820846558,0.12044160813093185,-0.03509877622127533
-1.4299129247665405,0.1204744428396225,-0.04388295114040375
-1.4300600290298462,0.12051179260015488,-0.05267222970724106
-1.4302072525024414,0.12055370956659317,-0.06146729364991188
-1.4303544759750366,0.12060019373893738,-0.07026880979537964
-1.430501937866211,0.12065127491950989,-0.07907745242118835
-1.4306496381759644,0.1207069456577301,-0.08789389580488205
-1.4307971000671387,0.12076718360185623,-0.09671878814697266
-1.4309452772140503,0.12083207815885544,-0.10555285960435867
-1.4310928583145142,0.12090154737234116,-0.11439672112464905
-1.4312411546707153,0.12097568064928055,-0.12325111776590347
-1.4313894510269165,0.12105446308851242,-0.13211670517921448
-1.431538462638855,0.12113794684410095,-0.14099423587322235
-1.431687355041504,0.12122609466314316,-0.14988431334495544
-1.4318362474441528,0.12131891399621964,-0.15878765285015106
-1.43198561668396,0.12141647189855576,-0.1677049845457077
-1.4321348667144775,0.12151873856782913,-0.1766369789838791
-1.432284951210022,0.12162580341100693,-0.1855844408273697
-1.4324349164962769,0.12173762917518616,-0.19454798102378845
-1.4325850009918213,0.12185421586036682,-0.20352831482887268
-1.4327353239059448,0.12197563052177429,-0.21252621710300446
-1.4328868389129639,0.12210195511579514,-0.22154252231121063
-1.4330374002456665,0.12223305553197861,-0.23057767748832703
-1.433189034461975,0.12236910313367844,-0.239632710814476
-1.433341145515442,0.12251008301973343,-0.24870827794075012
-1.4334930181503296,0.1226559653878212,-0.2578050494194031
-1.4336457252502441,0.1228068619966507,-0.2669239044189453
-1.4337987899780273,0.12296275794506073,-0.2760655879974365
-1.4339522123336792,0.12312369793653488,-0.2852308452129364
-1.4341061115264893,0.12328970432281494,-0.2944204807281494
-1.390308141708374,0.21960757672786713,2.563128709793091
-1.390835165977478,0.21723754703998566,2.5269808769226074
-1.3913425207138062,0.21492482721805573,2.4915881156921387
-1.3918633460998535,0.2126724272966385,2.456982374191284
-1.392303466796875,0.21046403050422668,2.422971725463867
-1.3927778005599976,0.20831523835659027,2.389732837677002
-1.3932777643203735,0.206222802400589,2.357224225997925
-1.3937052488327026,0.20417042076587677,2.325256586074829
-1.394139051437378,0.20216816663742065,2.2939422130584717
-1.3945895433425903,0.20021584630012512,2.263275623321533
-1.3949838876724243,0.1983015388250351,2.2331182956695557
-1.3954073190689087,0.19643595814704895,2.2035889625549316
-1.395770788192749,0.19460512697696686,2.174527645111084
-1.3961925506591797,0.19282428920269012,2.1461021900177
-1.3965935707092285,0.19108107686042786,2.118170976638794
-1.3969255685806274,0.18936778604984283,2.090646743774414
-1.3973215818405151,0.18770134449005127,2.063714027404785
-1.3976380825042725,0.18606124818325043,2.037144422531128
-1.3979912996292114,0.1844620257616043,2.011094808578491
-1.3983134031295776,0.18289358913898468,1.98545241355896
-1.3986804485321045,0.18136492371559143,1.9603122472763062
-1.3989791870117188,0.17986029386520386,1.9355016946792603
-1.3993220329284668,0.17839333415031433,1.9111655950546265
-1.3996164798736572,0.1769513040781021,1.8871644735336304
-1.3998997211456299,0.17553815245628357,1.8635386228561401
-1.4002074003219604,0.17415748536586761,1.8403244018554688
-1.4004853963851929,0.17280173301696777,1.817439317703247
-1.400779128074646,0.17147581279277802,1.7949326038360596
-1.4010413885116577,0.17017313838005066,1.7727335691452026
-1.4013117551803589,0.16889788210391998,1.7508835792541504
-1.401546597480774,0.16764408349990845,1.7293189764022827
-1.4018096923828125,0.16641877591609955,1.7081100940704346
-1.4020545482635498,0.16521568596363068,1.6871906518936157
-1.4023157358169556,0.16403834521770477,1.6665945053100586
-1.4025421142578125,0.16288012266159058,1.6462523937225342
-1.4027421474456787,0.16174152493476868,1.6261680126190186
-1.402991771697998,0.1606307327747345,1.6064215898513794
-1.403185486793518,0.15953509509563446,1.5868844985961914
-1.4034063816070557,0.15846358239650726,1.5676445960998535
-1.4036221504211426,0.15741202235221863,1.5486584901809692
-1.4038028717041016,0.15637657046318054,1.5298866033554077
-1.4040049314498901,0.1553630828857422,1.5113850831985474
-1.404183030128479,0.15436610579490662,1.493098497390747
-1.4043769836425781,0.15338952839374542,1.4750632047653198
-1.4045567512512207,0.15242967009544373,1.4572420120239258
-1.404726505279541,0.1514865756034851,1.439633846282959
-1.404927134513855,0.15056423842906952,1.4222748279571533
-1.4051629304885864,0.14966267347335815,1.4051629304885864
-1.4054462909698486,0.14878274500370026,1.3883038759231567
-1.405726432800293,0.14791864156723022,1.3716412782669067
-1.4060022830963135,0.14706991612911224,1.3551695346832275
-1.4062755107879639,0.146236389875412,1.3388855457305908
-1.4065461158752441,0.14541776478290558,1.3227849006652832
-1.4068137407302856,0.14461366832256317,1.3068630695343018
-1.4070777893066406,0.14382372796535492,1.2911150455474854
-1.4073396921157837,0.14304779469966888,1.2755383253097534
-1.4075980186462402,0.14228545129299164,1.2601274251937866
-1.4078541994094849,0.14153654873371124,1.244879961013794
-1.4081072807312012,0.14080071449279785,1.2297910451889038
-1.408358097076416,0.14007776975631714,1.214858055114746
-1.4086060523986816,0.13936741650104523,1.2000768184661865
-1.4088517427444458,0.1386694312095642,1.1854443550109863
-1.4090946912765503,0.1379835456609726,1.1709569692611694
-1.4093354940414429,0.13730958104133606,1.1566118001937866
-1.409574031829834,0.1366472989320755,1.14240562915802
-1.4098104238510132,0.135996475815773,1.1283353567123413
-1.4100444316864014,0.13535688817501068,1.1143978834152222
-1.410275936126709,0.1347282975912094,1.1005902290344238
-1.4105054140090942,0.13411055505275726,1.0869096517562866
-1.4107329845428467,0.13350346684455872,1.0733535289764404
-1.4109588861465454,0.13290688395500183,1.0599194765090942
-1.4111824035644531,0.13232050836086273,1.0466041564941406
-1.411404013633728,0.13174425065517426,1.0334053039550781
-1.4116239547729492,0.13117793202400208,1.0203207731246948
-1.4118410348892212,0.13062125444412231,1.0073468685150146
-1.4120571613311768,0.13007423281669617,0.9944828152656555
-1.4122711420059204,0.12953661382198334,0.9817253947257996
-1.4124835729599,0.12900826334953308,0.9690725803375244
-1.4126945734024048,0.12848906219005585,0.9565223455429077
-1.4129034280776978,0.12797875702381134,0.944071888923645
-1.4131102561950684,0.1274772584438324,0.9317192435264587
-1.4133161306381226,0.12698447704315186,0.9194629788398743
-1.413520097732544,0.1265002340078354,0.9073005318641663
-1.4137227535247803,0.12602439522743225,0.8952300548553467
-1.4139240980148315,0.1255568563938141,0.8832497596740723
-1.414123773574829,0.12509743869304657,0.8713575005531311
-1.4143213033676147,0.12464600801467896,0.8595510721206665
-1.414517879486084,0.12420250475406647,0.8478294014930725
-1.4147136211395264,0.12376683950424194,0.8361907005310059
-1.4149075746536255,0.12333881855010986,0.8246327042579651
-1.4150999784469604,0.12291833758354187,0.813153862953186
-1.415291666984558,0.12250535935163498,0.8017528653144836
-1.4154808521270752,0.1220996230840683,0.7904270887374878
-1.4156702756881714,0.12170125544071198,0.7791764736175537
-1.4158574342727661,0.12130995094776154,0.7679981589317322
-1.416043996810913,0.12092573940753937,0.7568913102149963
-1.4162296056747437,0.12054849416017532,0.7458542585372925
-1.4164131879806519,0.12017803639173508,0.7348850965499878
-1.4165960550308228,0.11981437355279922,0.7239828109741211
-1.4167778491973877,0.11945739388465881,0.7131460309028625
-1.4169584512710571,0.11910700052976608,0.7023731470108032
-1.4171383380889893,0.11876313388347626,0.6916630268096924
-1.4173167943954468,0.11842566728591919,0.6810139417648315
-1.417494773864746,0.11809458583593369,0.6704250574111938
-1.4176712036132812,0.11776972562074661,0.6598946452140808
-1.4178470373153687,0.11745109409093857,0.6494216918945312
-1.41802179813385,0.1171385645866394,0.6390048265457153
-1.4181954860687256,0.11683207005262375,0.6286427974700928
-1.4183682203292847,0.11653154343366623,0.6183344721794128
-1.418540596961975,0.11623696237802505,0.6080788373947144
-1.4187113046646118,0.11594817042350769,0.5978742241859436
-1.4188814163208008,0.11566516757011414,0.5877199172973633
-1.4190514087677002,0.115387924015522,0.577614963054657
-1.4192200899124146,0.11511629819869995,0.5675577521324158
-1.4193875789642334,0.1148502305150032,0.5575472712516785
-1.419554591178894,0.11458971351385117,0.5475826263427734
-1.419721245765686,0.11433469504117966,0.5376628637313843
-1.419886589050293,0.11408505588769913,0.5277866125106812
-1.4200519323349,0.11384084820747375,0.5179533362388611
-1.4202156066894531,0.11360186338424683,0.5081613063812256
-1.420379400253296,0.1133681982755661,0.498410165309906
-1.4205422401428223,0.11313972622156143,0.4886986315250397
-1.4207042455673218,0.11291640996932983,0.4790257513523102
-1.4208658933639526,0.11269821226596832,0.4693906903266907
-1.4210268259048462,0.11248508840799332,0.4597924053668976
-1.4211872816085815,0.11227699369192123,0.45023003220558167
-1.4213471412658691,0.1120738834142685,0.4407026171684265
-1.4215060472488403,0.11187567561864853,0.43120914697647095
-1.4216649532318115,0.11168240755796432,0.4217489957809448
-1.4218226671218872,0.11149395257234573,0.41232094168663025
-1.421980381011963,0.11131034791469574,0.40292444825172424
-1.422136902809143,0.11113147437572479,0.3935582935810089
-1.4222935438156128,0.11095739901065826,0.38422203063964844
-1.4224499464035034,0.11078803986310959,0.37491464614868164
-1.4226053953170776,0.1106233298778534,0.3656351864337921
-1.4227603673934937,0.11046325415372849,0.35638290643692017
-1.4229148626327515,0.11030779033899307,0.3471570312976837
-1.4230693578720093,0.11015693843364716,0.33795684576034546
-1.4232227802276611,0.11001057922840118,0.32878127694129944
-1.423376202583313,0.10986877232789993,0.31962981820106506
-1.4235297441482544,0.10973148792982101,0.31050166487693787
-1.4236820936203003,0.10959861427545547,0.30139580368995667
-1.4238344430923462,0.10947020351886749,0.2923116981983185
-1.4239861965179443,0.1093461886048317,0.2832484841346741
-1.424138069152832,0.10922659188508987,0.2742054760456085
-1.4242888689041138,0.10911130905151367,0.2651817798614502
-1.4244399070739746,0.10900041460990906,0.2561768889427185
-1.4245905876159668,0.10889381915330887,0.24718990921974182
-1.4247409105300903,0.1087915375828743,0.23822015523910522
-1.4248905181884766,0.10869349539279938,0.22926683723926544
-1.4250402450561523,0.10859974473714828,0.22032934427261353
-1.4251899719238281,0.10851024836301804,0.21140696108341217
-1.4253393411636353,0.10842497646808624,0.2024989128112793
-1.4254883527755737,0.10834391415119171,0.19360452890396118
-1.425636887550354,0.10826701670885086,0.18472304940223694
-1.4257855415344238,0.10819432139396667,0.1758538782596588
-1.425934076309204,0.10812579840421677,0.16699627041816711
-1.4260821342468262,0.10806141048669815,0.15814954042434692
-1.4262304306030273,0.10800118744373322,0.14931301772594452
-1.426377773284912,0.1079450324177742,0.140485942363739
-1.4265261888504028,0.10789310187101364,0.1316678375005722
-1.4266736507415771,0.10784520208835602,0.12285778671503067
-1.426820993423462,0.1078014075756073,0.11405523121356964
-1.4269684553146362,0.10776171833276749,0.10525951534509659
-1.4271156787872314,0.10772611200809479,0.0964699313044548
-1.427262783050537,0.10769457370042801,0.08768581598997116
