-1.4299671649932861,-0.1592308133840561,-0.1143067255616188
-1.4301151037216187,-0.159328430891037,-0.12315414845943451
-1.4302634000778198,-0.15943220257759094,-0.1320127695798874
-1.4304120540618896,-0.15954212844371796,-0.14088328182697296
-1.4305609464645386,-0.15965823829174042,-0.14976638555526733
-1.430709719657898,-0.15978048741817474,-0.15866272151470184
-1.4308592081069946,-0.15990900993347168,-0.16757307946681976
-1.4310081005096436,-0.1600436568260193,-0.17649801075458527
-1.4311580657958984,-0.16018468141555786,-0.18543843924999237
-1.4313080310821533,-0.16033194959163666,-0.19439493119716644
-1.4314582347869873,-0.16048553586006165,-0.20336824655532837
-1.4316083192825317,-0.16064542531967163,-0.21235902607440948
-1.4317594766616821,-0.16081178188323975,-0.2213682234287262
-1.4319102764129639,-0.16098447144031525,-0.2303963154554367
-1.4320619106292725,-0.16116365790367126,-0.23944424092769623
-1.4322137832641602,-0.1613493412733078,-0.24851267039775848
-1.4323656558990479,-0.16154147684574127,-0.2576023042201996
-1.4325182437896729,-0.16174019873142242,-0.2667139768600464
-1.432671308517456,-0.16194555163383484,-0.27584850788116455
-1.4328244924545288,-0.16215747594833374,-0.28500649333000183
-1.4329785108566284,-0.16237615048885345,-0.2941889464855194
-1.433132290840149,-0.16260147094726562,-0.30339643359184265
-1.4332870244979858,-0.16283360123634338,-0.31262993812561035
-3.874823570251465,-0.4408112168312073,-0.8701207041740417
-1.3897374868392944,-0.3457467257976532,2.5249862670898438
-1.3902409076690674,-0.3420650362968445,2.4896154403686523
-1.3907592296600342,-0.3384796977043152,2.455033302307129
-1.3912030458450317,-0.33496588468551636,2.4210565090179443
-1.3916815519332886,-0.3315470814704895,2.3878519535064697
-1.3921865224838257,-0.3282180726528168,2.3553781509399414
-1.3926200866699219,-0.3249530494213104,2.323446273803711
-1.393056035041809,-0.3217668831348419,2.2921602725982666
-1.3935067653656006,-0.31865978240966797,2.2615184783935547
-1.3939012289047241,-0.3156130909919739,2.2313852310180664
-1.3943251371383667,-0.31264400482177734,2.2018799781799316
-1.3946890830993652,-0.30973029136657715,2.172842502593994
-1.395108938217163,-0.30689555406570435,2.1444363594055176
-1.3955059051513672,-0.3041203022003174,2.1165213584899902
-1.3958340883255005,-0.30139270424842834,2.0890133380889893
-1.3962262868881226,-0.2987397015094757,2.06209659576416
-1.396539330482483,-0.29612869024276733,2.0355429649353027
-1.396889567375183,-0.29358285665512085,2.009510040283203
-1.3972092866897583,-0.2910861372947693,1.9838846921920776
-1.3975741863250732,-0.28865277767181396,1.9587618112564087
-1.397870659828186,-0.28625765442848206,1.9339679479599
-1.3982115983963013,-0.28392258286476135,1.9096487760543823
-1.3985040187835693,-0.2816271483898163,1.8856643438339233
-1.3987853527069092,-0.27937769889831543,1.8620550632476807
-1.3990908861160278,-0.27717992663383484,1.8388569355010986
-1.3993669748306274,-0.27502188086509705,1.8159879446029663
-1.3996593952178955,-0.2729113698005676,1.7934976816177368
-1.3999202251434326,-0.2708379030227661,1.7713149785995483
-1.4001898765563965,-0.26880818605422974,1.7494819164276123
-1.4004234075546265,-0.2668125033378601,1.7279331684112549
-1.400686264038086,-0.2648623287677765,1.7067410945892334
-1.4009296894073486,-0.26294735074043274,1.6858370304107666
-1.401189923286438,-0.26107344031333923,1.6652565002441406
-1.4014157056808472,-0.25922998785972595,1.6449302434921265
-1.4016146659851074,-0.2574177086353302,1.6248610019683838
-1.4018633365631104,-0.25564971566200256,1.605129599571228
-1.4020562171936035,-0.2539058327674866,1.5856074094772339
-1.4022760391235352,-0.25220033526420593,1.5663820505142212
-1.4024908542633057,-0.2505265772342682,1.5474101305007935
-1.4026707410812378,-0.24887850880622864,1.5286529064178467
-1.4028728008270264,-0.2472655475139618,1.5101664066314697
-1.4030508995056152,-0.2456788271665573,1.4918946027755737
-1.403244137763977,-0.24412447214126587,1.4738733768463135
-1.4034231901168823,-0.24259674549102783,1.4560660123825073
-1.4035934209823608,-0.24109585583209991,1.4384725093841553
-1.403794288635254,-0.23962801694869995,1.4211280345916748
-1.4040342569351196,-0.23819388449192047,1.4040342569351196
-1.4043171405792236,-0.2367933839559555,1.38718843460083
-1.4045965671539307,-0.23541805148124695,1.3705387115478516
-1.4048720598220825,-0.23406726121902466,1.3540802001953125
-1.4051448106765747,-0.2327406406402588,1.3378090858459473
-1.4054148197174072,-0.23143769800662994,1.321721076965332
-1.4056817293167114,-0.23015785217285156,1.3058115243911743
-1.4059453010559082,-0.22890059649944305,1.2900758981704712
-1.4062068462371826,-0.22766566276550293,1.2745115756988525
-1.4064650535583496,-0.22645238041877747,1.2591131925582886
-1.4067202806472778,-0.22526034712791443,1.2438772916793823
-1.406973123550415,-0.22408924996852875,1.2288005352020264
-1.4072233438491821,-0.22293859720230103,1.2138792276382446
-1.4074711799621582,-0.2218080312013626,1.1991099119186401
-1.4077162742614746,-0.22069711983203888,1.1844888925552368
-1.407959222793579,-0.21960553526878357,1.1700133085250854
-1.4081993103027344,-0.21853281557559967,1.1556793451309204
-1.4084374904632568,-0.21747873723506927,1.1414844989776611
-1.4086731672286987,-0.21644286811351776,1.127425193786621
-1.4089070558547974,-0.21542493999004364,1.1134990453720093
-1.4091382026672363,-0.2144244909286499,1.09970223903656
-1.4093670845031738,-0.21344128251075745,1.086032509803772
-1.4095945358276367,-0.21247509121894836,1.0724873542785645
-1.4098199605941772,-0.211525559425354,1.0590639114379883
-1.4100428819656372,-0.21059229969978333,1.0457590818405151
-1.4102641344070435,-0.20967510342597961,1.032570719718933
-1.410483479499817,-0.20877371728420258,1.0194964408874512
-1.4107005596160889,-0.20788776874542236,1.006533145904541
-1.4109162092208862,-0.20701713860034943,0.9936792850494385
-1.4111299514770508,-0.2061614990234375,0.9809321165084839
-1.4113420248031616,-0.2053205817937851,0.9682893753051758
-1.4115526676177979,-0.20449422299861908,0.9557491540908813
-1.4117611646652222,-0.2036820501089096,0.9433086514472961
-1.4119675159454346,-0.20288383960723877,0.930965781211853
-1.4121733903884888,-0.20209962129592896,0.9187195897102356
-1.412376880645752,-0.20132885873317719,0.9065667390823364
-1.4125791788101196,-0.20057152211666107,0.8945059180259705
-1.4127802848815918,-0.1998274028301239,0.8825352191925049
-1.4129793643951416,-0.1990961879491806,0.8706523776054382
-1.4131766557693481,-0.19837769865989685,0.8588554263114929
-1.4133731126785278,-0.19767186045646667,0.8471432328224182
-1.4135684967041016,-0.19697844982147217,0.8355138301849365
-1.4137619733810425,-0.19629719853401184,0.8239650130271912
-1.4139540195465088,-0.19562797248363495,0.8124953508377075
-1.4141454696655273,-0.19497068226337433,0.8011035323143005
-1.4143346548080444,-0.19432495534420013,0.7897869944572449
-1.4145232439041138,-0.19369086623191833,0.7785452008247375
-1.414710521697998,-0.19306813180446625,0.7673760056495667
-1.4148963689804077,-0.19245657324790955,0.756277859210968
-1.4150816202163696,-0.19185613095760345,0.7452496886253357
-1.4152653217315674,-0.19126658141613007,0.7342895269393921
-1.415447473526001,-0.19068773090839386,0.7233958840370178
-1.415629267692566,-0.19011960923671722,0.7125678658485413
-1.4158098697662354,-0.18956196308135986,0.7018038034439087
-1.4159893989562988,-0.18901467323303223,0.6911022663116455
-1.4161676168441772,-0.1884775608778,0.6804617643356323
-1.4163451194763184,-0.18795059621334076,0.6698813438415527
-1.4165210723876953,-0.18743352591991425,0.6593592762947083
-1.4166969060897827,-0.18692642450332642,0.6488949060440063
-1.4168713092803955,-0.1864290088415146,0.638486385345459
-1.417044758796692,-0.1859412044286728,0.6281327605247498
-1.4172173738479614,-0.18546290695667267,0.6178327798843384
-1.4173892736434937,-0.18499404191970825,0.6075853109359741
-1.4175599813461304,-0.18453443050384521,0.5973891019821167
-1.4177299737930298,-0.18408401310443878,0.5872429609298706
-1.4178993701934814,-0.18364273011684418,0.577146053314209
-1.4180678129196167,-0.18321041762828827,0.5670969486236572
-1.4182353019714355,-0.1827869713306427,0.5570945739746094
-1.418401837348938,-0.1823723167181015,0.547137975692749
-1.4185682535171509,-0.18196643888950348,0.5372262597084045
-1.4187333583831787,-0.18156912922859192,0.5273579955101013
-1.4188984632492065,-0.1811804324388504,0.5175325870513916
-1.4190618991851807,-0.18080008029937744,0.5077484846115112
-1.4192255735397339,-0.18042819201946259,0.49800530076026917
-1.4193878173828125,-0.18006452918052673,0.48830151557922363
-1.4195501804351807,-0.17970915138721466,0.47863662242889404
-1.4197113513946533,-0.17936186492443085,0.46900931000709534
-1.4198720455169678,-0.1790226548910141,0.45941877365112305
-1.420032262802124,-0.17869144678115845,0.44986414909362793
-1.4201921224594116,-0.1783682107925415,0.44034451246261597
-1.4203506708145142,-0.17805272340774536,0.43085867166519165
-1.4205092191696167,-0.17774511873722076,0.4214061498641968
-1.420667052268982,-0.1774452030658722,0.4119858145713806
-1.420824408531189,-0.17715296149253845,0.4025968611240387
-1.4209809303283691,-0.17686830461025238,0.3932383954524994
-1.4211373329162598,-0.17659124732017517,0.383909672498703
-1.4212933778762817,-0.17632170021533966,0.3746098279953003
-1.4214485883712769,-0.1760595291852951,0.36533787846565247
-1.4216035604476929,-0.17580477893352509,0.3560931384563446
-1.4217579364776611,-0.17555736005306244,0.34687477350234985
-1.4219123125076294,-0.17531725764274597,0.3376820385456085
-1.4220654964447021,-0.17508430778980255,0.3285139203071594
-1.422218680381775,-0.17485861480236053,0.3193698823451996
-1.4223721027374268,-0.17464013397693634,0.3102491796016693
-1.4225242137908936,-0.17442865669727325,0.30115070939064026
-1.4226760864257812,-0.17422422766685486,0.29207390546798706
-1.4228277206420898,-0.17402686178684235,0.28301802277565
-1.4229792356491089,-0.17383649945259094,0.27398237586021423
-1.4231300354003906,-0.1736530363559723,0.26496604084968567
-1.4232810735702515,-0.17347654700279236,0.25596848130226135
-1.423431634902954,-0.1733069270849228,0.24698881804943085
-1.4235817193984985,-0.17314410209655762,0.23802633583545685
-1.4237312078475952,-0.17298805713653564,0.22908027470111847
-1.423880696296692,-0.17283885180950165,0.22015006840229034
-1.4240303039550781,-0.17269642651081085,0.2112349420785904
-1.4241794347763062,-0.1725606918334961,0.20233413577079773
-1.4243282079696655,-0.17243166267871857,0.19344696402549744
-1.4244768619537354,-0.1723092943429947,0.1845727413892746
-1.4246255159378052,-0.17219361662864685,0.1757107973098755
-1.4247738122940063,-0.17208456993103027,0.1668604016304016
-1.4249218702316284,-0.17198209464550018,0.15802085399627686
-1.4250696897506714,-0.17188620567321777,0.14919151365756989
-1.4252171516418457,-0.17179687321186066,0.140371635556221
-1.4253650903701782,-0.1717141568660736,0.13156066834926605
-1.425512671470642,-0.17163796722888947,0.12275780737400055
-1.425659418106079,-0.17156821489334106,0.11396238952875137
-1.425806999206543,-0.17150507867336273,0.10517384111881256
-1.425953984260559,-0.17144837975502014,0.09639140218496323
-1.4261010885238647,-0.17139822244644165,0.08761445432901382
-1.4262481927871704,-0.1713545173406601,0.07884230464696884
-1.4263943433761597,-0.1713172048330307,0.07007426023483276
-1.4265414476394653,-0.1712864637374878,0.06130974739789963
-1.4266880750656128,-0.17126213014125824,0.05254803225398064
-1.4268345832824707,-0.17124423384666443,0.04378847777843475
-1.4269816875457764,-0.17123286426067352,0.03503043204545975
-1.4271283149719238,-0.17122788727283478,0.026273217052221298
-1.4272748231887817,-0.17122934758663177,0.017516177147626877
-1.4274214506149292,-0.1712372750043869,0.008758658543229103
-1.4275680780410767,-0.17125163972377777,2.6223134195368274e-16
-1.4277148246765137,-0.17127245664596558,-0.00876045785844326
-1.4278613328933716,-0.17129972577095032,-0.017523374408483505
-1.428007960319519,-0.1713334321975708,-0.026289409026503563
-1.4281551837921143,-0.17137368023395538,-0.03505924344062805
-1.42830228805542,-0.1714203804731369,-0.043833520263433456
-1.4284491539001465,-0.17147353291511536,-0.052612897008657455
-1.4285956621170044,-0.17153310775756836,-0.06139803305268288
-1.4287433624267578,-0.17159932851791382,-0.07018966227769852
-1.4288907051086426,-0.1716720014810562,-0.07898838818073273
-1.4290379285812378,-0.17175118625164032,-0.08779487758874893
-1.4291855096817017,-0.17183692753314972,-0.09660984575748444
-1.4293335676193237,-0.171929270029068,-0.10543397814035416
-1.4294811487197876,-0.17202812433242798,-0.11426787823438644
-1.4296292066574097,-0.17213362455368042,-0.12311230599880219
-1.4297773838043213,-0.17224571108818054,-0.1319679170846939
-1.4299259185791016,-0.1723644733428955,-0.14083541929721832
-1.4300748109817505,-0.17248991131782532,-0.14971549808979034
-1.4302237033843994,-0.17262199521064758,-0.1586088240146637
-1.430372953414917,-0.17276082932949066,-0.16751614212989807
-1.4305217266082764,-0.172906294465065,-0.17643801867961884
-1.4306718111038208,-0.1730586588382721,-0.1853754222393036
-1.4308216571807861,-0.1732177734375,-0.19432887434959412
-1.4309717416763306,-0.1733836978673935,-0.2032991349697113
-1.431122064590454,-0.17355646193027496,-0.21228690445423126
-1.431273102760315,-0.17373618483543396,-0.22129303216934204
-1.4314237833023071,-0.17392274737358093,-0.23031803965568542
-1.4315754175186157,-0.1741163432598114,-0.239362895488739
-1.4317270517349243,-0.1743169128894806,-0.24842821061611176
-1.4318788051605225,-0.1745244711637497,-0.25751471519470215
-1.4320313930511475,-0.17473918199539185,-0.266623318195343
-1.4321843385696411,-0.17496103048324585,-0.2757547199726105
-1.4323375225067139,-0.1751900017261505,-0.2849096357822418
-1.432491421699524,-0.17542624473571777,-0.2940889596939087
-1.4326452016830444,-0.17566967010498047,-0.3032933175563812
-1.432800054550171,-0.1759204864501953,-0.3125237226486206
-3.7132487297058105,-0.456535667181015,-0.8338379263877869
-1.3902664184570312,-0.3717721998691559,2.525947332382202
-1.3907699584960938,-0.3678133189678192,2.490562677383423
-1.391286015510559,-0.3639574646949768,2.455963373184204
-1.3917263746261597,-0.36017823219299316,2.4219672679901123
-1.3922052383422852,-0.35650214552879333,2.3887505531311035
-1.3927112817764282,-0.35292279720306396,2.3562657833099365
-1.3931454420089722,-0.34941214323043823,2.3243227005004883
-1.3935818672180176,-0.3459862172603607,2.293025493621826
-1.394032597541809,-0.34264519810676575,2.262371778488159
-1.3944274187088013,-0.3393692076206207,2.2322275638580322
-1.3948512077331543,-0.3361766040325165,2.2027106285095215
-1.3952151536941528,-0.33304351568222046,2.1736621856689453
-1.395637035369873,-0.32999590039253235,2.1452481746673584
-1.3960360288619995,-0.32701215147972107,2.1173253059387207
-1.396364450454712,-0.3240792751312256,2.0898070335388184
-1.3967567682266235,-0.321226567029953,2.062880039215088
-1.397070050239563,-0.31841903924942017,2.0363166332244873
-1.3974207639694214,-0.3156816363334656,2.0102739334106445
-1.3977407217025757,-0.312997043132782,1.984639286994934
-1.3981058597564697,-0.3103805184364319,1.959506869316101
-1.398402214050293,-0.30780506134033203,1.9347033500671387
-1.3987431526184082,-0.3052942156791687,1.9103749990463257
-1.3990355730056763,-0.3028259575366974,1.8863810300827026
-1.3993169069290161,-0.30040717124938965,1.8627628087997437
-1.3996226787567139,-0.29804399609565735,1.8395558595657349
-1.3998984098434448,-0.29572340846061707,1.8166775703430176
-1.4001909494400024,-0.29345402121543884,1.79417884349823
-1.4004515409469604,-0.2912244200706482,1.7719873189926147
-1.4007211923599243,-0.2890418767929077,1.7501457929611206
-1.400955319404602,-0.28689607977867126,1.728589415550232
-1.4012176990509033,-0.2847990095615387,1.7073887586593628
-1.4014616012573242,-0.2827399671077728,1.6864771842956543
-1.401721715927124,-0.2807249426841736,1.6658885478973389
-1.401947259902954,-0.2787427008152008,1.6455541849136353
-1.4021461009979248,-0.2767939567565918,1.6254770755767822
-1.402395248413086,-0.2748929262161255,1.6057385206222534
-1.4025880098342896,-0.2730177640914917,1.5862088203430176
-1.4028079509735107,-0.27118387818336487,1.5669761896133423
-1.4030230045318604,-0.2693841755390167,1.547997236251831
-1.4032026529312134,-0.2676120102405548,1.5292325019836426
-1.4034042358398438,-0.26587754487991333,1.510738492012024
-1.4035824537277222,-0.26417139172554016,1.492459774017334
-1.403775691986084,-0.26250001788139343,1.4744317531585693
-1.4039549827575684,-0.26085731387138367,1.4566177129745483
-1.4041250944137573,-0.2592434585094452,1.439017415046692
-1.4043259620666504,-0.25766509771347046,1.4216662645339966
-1.404564380645752,-0.2561227083206177,1.404564380645752
-1.4048471450805664,-0.25461676716804504,1.387712001800537
-1.405126929283142,-0.2531379461288452,1.371056318283081
-1.405402421951294,-0.2516854703426361,1.3545913696289062
-1.4056752920150757,-0.25025901198387146,1.338314175605774
-1.4059453010559082,-0.24885796010494232,1.322219967842102
-1.406212329864502,-0.2474817931652069,1.3063044548034668
-1.4064762592315674,-0.24612994492053986,1.2905631065368652
-1.4067378044128418,-0.24480204284191132,1.274992823600769
-1.4069956541061401,-0.2434973567724228,1.2595882415771484
-1.4072513580322266,-0.24221567809581757,1.2443468570709229
-1.4075042009353638,-0.2409563958644867,1.2292643785476685
-1.4077547788619995,-0.23971916735172272,1.2143375873565674
-1.408002495765686,-0.23850347101688385,1.1995625495910645
-1.408247709274292,-0.23730894923210144,1.1849360466003418
-1.4084904193878174,-0.23613515496253967,1.170454740524292
-1.4087307453155518,-0.2349817156791687,1.1561154127120972
-1.4089688062667847,-0.23384825885295868,1.141914963722229
-1.4092047214508057,-0.23273444175720215,1.1278506517410278
-1.4094387292861938,-0.23163990676403046,1.1139191389083862
-1.4096697568893433,-0.23056411743164062,1.1001170873641968
-1.409899115562439,-0.2295069545507431,1.0864423513412476
-1.4101262092590332,-0.22846800088882446,1.0728919506072998
-1.4103518724441528,-0.22744698822498322,1.0594635009765625
-1.4105751514434814,-0.22644351422786713,1.0461537837982178
-1.4107962846755981,-0.22545728087425232,1.0329604148864746
-1.4110157489776611,-0.2244880646467209,1.0198811292648315
-1.4112327098846436,-0.22353540360927582,1.0069129467010498
-1.4114484786987305,-0.22259922325611115,0.9940541386604309
-1.411662220954895,-0.22167916595935822,0.9813021421432495
-1.4118744134902954,-0.22077496349811554,0.9686546921730042
-1.4120850563049316,-0.2198863923549652,0.9561096429824829
-1.412293553352356,-0.21901308000087738,0.9436644315719604
-1.4125003814697266,-0.21815484762191772,0.9313170909881592
-1.4127060174942017,-0.2173115313053131,0.9190660715103149
-1.412909746170044,-0.21648278832435608,0.9069086909294128
-1.4131121635437012,-0.2156684547662735,0.8948433995246887
-1.4133129119873047,-0.21486827731132507,0.8828679919242859
-1.4135123491287231,-0.2140820473432541,0.8709807395935059
-1.4137097597122192,-0.21330949664115906,0.8591794371604919
-1.4139060974121094,-0.21255049109458923,0.8474626541137695
-1.414101481437683,-0.21180489659309387,0.8358289003372192
-1.4142950773239136,-0.21107237040996552,0.8242757320404053
-1.4144871234893799,-0.21035274863243103,0.8128016591072083
-1.4146785736083984,-0.20964598655700684,0.8014055490493774
-1.414867877960205,-0.2089516669511795,0.7900847792625427
-1.4150567054748535,-0.208269864320755,0.7788387537002563
-1.4152439832687378,-0.20760023593902588,0.7676653265953064
-1.415429949760437,-0.20694264769554138,0.7565630674362183
-1.4156153202056885,-0.20629705488681793,0.7455307841300964
-1.4157986640930176,-0.2056630551815033,0.7345662117004395
-1.415981411933899,-0.20504070818424225,0.7236687541007996
-1.4161628484725952,-0.2044297605752945,0.712836503982544
-1.4163436889648438,-0.20383015275001526,0.7020683884620667
-1.4165229797363281,-0.20324163138866425,0.6913626790046692
-1.4167015552520752,-0.20266413688659668,0.6807183623313904
-1.4168790578842163,-0.20209749042987823,0.6701338887214661
-1.4170552492141724,-0.20154154300689697,0.6596079468727112
-1.4172308444976807,-0.20099623501300812,0.6491394639015198
-1.417405605316162,-0.20046140253543854,0.6387271285057068
-1.4175788164138794,-0.19993683695793152,0.6283695101737976
-1.4177515506744385,-0.19942255318164825,0.6180656552314758
-1.4179235696792603,-0.1989184021949768,0.607814371585846
-1.4180943965911865,-0.19842419028282166,0.5976142287254333
-1.4182642698287964,-0.19793985784053802,0.5874642729759216
-1.418433666229248,-0.19746536016464233,0.5773635506629944
-1.4186023473739624,-0.19700051844120026,0.5673106908798218
-1.4187698364257812,-0.19654519855976105,0.5573045611381531
-1.4189366102218628,-0.19609934091567993,0.5473442673683167
-1.4191030263900757,-0.19566291570663452,0.5374287962913513
-1.419268012046814,-0.19523566961288452,0.5275567173957825
-1.4194332361221313,-0.19481773674488068,0.5177276730537415
-1.4195969104766846,-0.19440875947475433,0.507939875125885
-1.4197603464126587,-0.19400885701179504,0.4981929361820221
-1.4199230670928955,-0.19361786544322968,0.4884856045246124
-1.420084834098816,-0.19323566555976868,0.4788168966770172
-1.4202462434768677,-0.19286225736141205,0.4691859781742096
-1.4204071760177612,-0.19249753654003143,0.45959192514419556
-1.4205677509307861,-0.19214144349098206,0.4500337541103363
-1.4207273721694946,-0.19179382920265198,0.44051045179367065
-1.4208860397338867,-0.19145461916923523,0.4310210645198822
-1.4210447072982788,-0.1911238431930542,0.4215649962425232
-1.4212024211883545,-0.19080135226249695,0.4121410548686981
-1.421359896659851,-0.1904871165752411,0.40274861454963684
-1.4215165376663208,-0.19018104672431946,0.3933866322040558
-1.4216729402542114,-0.18988312780857086,0.38405436277389526
-1.4218292236328125,-0.18959328532218933,0.3747510313987732
-1.421984314918518,-0.18931138515472412,0.3654755651950836
-1.422139286994934,-0.18903745710849762,0.3562273383140564
-1.422293782234192,-0.18877141177654266,0.3470055162906647
-1.4224482774734497,-0.18851326406002045,0.33780935406684875
-1.4226012229919434,-0.18826274573802948,0.3286376893520355
-1.4227546453475952,-0.18802008032798767,0.3194902539253235
-1.422908067703247,-0.18778513371944427,0.31036606431007385
-1.4230602979660034,-0.18755772709846497,0.3012641668319702
-1.4232121706008911,-0.1873379349708557,0.29218393564224243
-1.4233640432357788,-0.18712572753429413,0.283124715089798
-1.4235155582427979,-0.18692103028297424,0.2740856409072876
-1.42366623878479,-0.1867237389087677,0.26506587862968445
-1.4238176345825195,-0.18653400242328644,0.2560649812221527
-1.4239680767059326,-0.18635158240795135,0.2470819056034088
-1.424118161201477,-0.18617650866508484,0.2381160408258438
-1.4242677688598633,-0.18600872159004211,0.22916661202907562
-1.4244173765182495,-0.18584829568862915,0.2202330380678177
-1.4245667457580566,-0.1856951117515564,0.21131451427936554
-1.4247158765792847,-0.18554915487766266,0.20241035521030426
-1.4248650074005127,-0.18541043996810913,0.19351986050605774
-1.425013542175293,-0.18527884781360626,0.1846422702074051
-1.4251619577407837,-0.18515442311763763,0.17577695846557617
-1.425310730934143,-0.18503721058368683,0.16692326962947845
-1.4254587888717651,-0.18492701649665833,0.15808039903640747
-1.425606608390808,-0.1848239153623581,0.14924772083759308
-1.4257543087005615,-0.18472787737846375,0.14042453467845917
-1.425902247428894,-0.18463893234729767,0.13161024451255798
-1.426049828529358,-0.1845569908618927,0.12280406802892685
-1.426196575164795,-0.18448199331760406,0.11400532722473145
-1.4263441562652588,-0.1844140887260437,0.105213463306427
-1.4264912605285645,-0.18435314297676086,0.09642772376537323
-1.4266383647918701,-0.18429917097091675,0.0876474529504776
-1.4267853498458862,-0.18425217270851135,0.07887199521064758
-1.4269319772720337,-0.1842121034860611,0.07010067254304886
-1.4270789623260498,-0.18417903780937195,0.06133285164833069
-1.4272255897521973,-0.18415285646915436,0.05256783217191696
-1.4273722171783447,-0.1841336339712143,0.04380497708916664
-1.42751944065094,-0.18412140011787415,0.035043634474277496
-1.4276659488677979,-0.18411603569984436,0.026283113285899162
-1.4278125762939453,-0.1841176301240921,0.017522776499390602
-1.4279594421386719,-0.18412616848945618,0.00876195915043354
-1.4281059503555298,-0.1841415911912918,2.6233015364093587e-16
-1.4282528162002563,-0.18416398763656616,-0.008763759396970272
-1.4283995628356934,-0.18419331312179565,-0.017529979348182678
-1.4285461902618408,-0.18422956764698029,-0.02629932016134262
-1.4286932945251465,-0.18427281081676483,-0.0350724533200264
-1.4288405179977417,-0.1843230277299881,-0.04385003447532654
-1.4289872646331787,-0.1843801587820053,-0.05263271555304527
-1.4291341304779053,-0.18444426357746124,-0.06142117455601692
-1.4292817115783691,-0.18451543152332306,-0.070216104388237
-1.429429054260254,-0.1845935881137848,-0.07901813834905624
-1.4295763969421387,-0.18467871844768524,-0.08782795816659927
-1.429724097251892,-0.18477094173431396,-0.0966462567448616
-1.4298722743988037,-0.18487024307250977,-0.10547371208667755
-1.4300198554992676,-0.18497653305530548,-0.11431094259023666
-1.4301679134368896,-0.18508994579315186,-0.12315869331359863
-1.4303160905838013,-0.1852104812860489,-0.13201762735843658
-1.4304648637771606,-0.18533819913864136,-0.1408884972333908
-1.4306137561798096,-0.18547306954860687,-0.14977191388607025
-1.4307626485824585,-0.18561510741710663,-0.15866859257221222
-1.430911898612976,-0.1857643723487854,-0.16757924854755402
-1.431061029434204,-0.1859208196401596,-0.17650453746318817
-1.4312108755111694,-0.18608462810516357,-0.18544527888298035
-1.4313610792160034,-0.18625573813915253,-0.19440212845802307
-1.4315110445022583,-0.18643413484096527,-0.20337574183940887
-1.4316611289978027,-0.18661987781524658,-0.21236686408519745
-1.4318125247955322,-0.18681316077709198,-0.221376433968544
-1.431963324546814,-0.18701376020908356,-0.23040485382080078
-1.432114839553833,-0.18722191452980042,-0.23945309221744537
-1.4322665929794312,-0.18743759393692017,-0.2485218346118927
-1.4324185848236084,-0.1876607984304428,-0.25761178135871887
-1.4325709342956543,-0.1878916323184967,-0.26672378182411194
-1.4327242374420166,-0.1881302148103714,-0.27585870027542114
-1.432877540588379,-0.18837644159793854,-0.28501707315444946
-1.4330313205718994,-0.18863043189048767,-0.29419979453086853
-1.43318510055542,-0.1888921856880188,-0.3034076392650604
-1.4333399534225464,-0.18916186690330505,-0.3126415014266968
-3.3959429264068604,-0.4487811028957367,-0.7625844478607178
-1.3897351026535034,-0.3975731432437897,2.52498197555542
-1.3902384042739868,-0.3933395445346832,2.4896109104156494
-1.3907538652420044,-0.38921597599983215,2.455024003982544
-1.391192078590393,-0.3851739168167114,2.421037435531616
-1.3916704654693604,-0.38124263286590576,2.3878328800201416
-1.392176866531372,-0.3774150311946869,2.3553617000579834
-1.392610788345337,-0.37366074323654175,2.3234307765960693
-1.3930470943450928,-0.3699970841407776,2.2921454906463623
-1.3934975862503052,-0.36642417311668396,2.2615036964416504
-1.3938919305801392,-0.36292076110839844,2.231370449066162
-1.3943159580230713,-0.3595066964626312,2.2018656730651855
-1.3946796655654907,-0.3561561405658722,2.172827959060669
-1.3951014280319214,-0.3528970181941986,2.1444249153137207
-1.3955014944076538,-0.3497065603733063,2.1165146827697754
-1.3958301544189453,-0.34657022356987,2.0890073776245117
-1.3962225914001465,-0.34351956844329834,2.0620908737182617
-1.396535873413086,-0.3405172526836395,2.0355379581451416
-1.3968864679336548,-0.3375898599624634,2.009505271911621
-1.397206425666809,-0.3347190022468567,1.983880639076233
-1.3975712060928345,-0.3319208323955536,1.9587575197219849
-1.3978677988052368,-0.3291667401790619,1.9339640140533447
-1.398208498954773,-0.32648158073425293,1.909644603729248
-1.3985005617141724,-0.32384198904037476,1.8856596946716309
-1.3987820148468018,-0.3212553858757019,1.8620506525039673
-1.3990871906280518,-0.31872808933258057,1.838852047920227
-1.3993629217147827,-0.31624647974967957,1.8159825801849365
-1.3996552228927612,-0.3138195872306824,1.793492317199707
-1.3999159336090088,-0.3114352822303772,1.7713096141815186
-1.4001853466033936,-0.30910125374794006,1.7494761943817139
-1.4004192352294922,-0.3068065345287323,1.7279280424118042
-1.400681495666504,-0.3045639097690582,1.706735372543335
-1.4009252786636353,-0.30236196517944336,1.6858317852020264
-1.4011852741241455,-0.30020707845687866,1.6652510166168213
-1.401410698890686,-0.2980872690677643,1.6449244022369385
-1.4016096591949463,-0.2960033118724823,1.6248550415039062
-1.4018583297729492,-0.2939702868461609,1.60512375831604
-1.4020508527755737,-0.29196494817733765,1.5856013298034668
-1.402271032333374,-0.29000386595726013,1.5663763284683228
-1.4024858474731445,-0.28807923197746277,1.5474046468734741
-1.4026652574539185,-0.28618404269218445,1.5286469459533691
-1.4028668403625488,-0.28432923555374146,1.5101600885391235
-1.4030448198318481,-0.2825046181678772,1.4918880462646484
-1.4032379388809204,-0.28071728348731995,1.4738669395446777
-1.4034171104431152,-0.27896055579185486,1.4560596942901611
-1.403586983680725,-0.27723464369773865,1.4384660720825195
-1.4037880897521973,-0.2755467891693115,1.4211217164993286
-1.4040254354476929,-0.2738972008228302,1.4040254354476929
-1.4043081998825073,-0.2722867727279663,1.3871796131134033
-1.4045876264572144,-0.27070528268814087,1.370530128479004
-1.4048631191253662,-0.2691520154476166,1.3540716171264648
-1.4051358699798584,-0.26762655377388,1.3378005027770996
-1.405405879020691,-0.2661283016204834,1.3217127323150635
-1.4056729078292847,-0.2646566331386566,1.3058032989501953
-1.4059367179870605,-0.2632109820842743,1.2900680303573608
-1.4061979055404663,-0.2617908716201782,1.274503469467163
-1.4064557552337646,-0.2603956460952759,1.25910484790802
-1.406711459159851,-0.25902503728866577,1.243869423866272
-1.4069640636444092,-0.2576783299446106,1.2287925481796265
-1.4072142839431763,-0.2563552260398865,1.2138714790344238
-1.4074621200561523,-0.2550552189350128,1.1991022825241089
-1.4077073335647583,-0.25377780199050903,1.1844813823699951
-1.407949686050415,-0.2525224983692169,1.170005440711975
-1.408190131187439,-0.251289039850235,1.1556717157363892
-1.4084280729293823,-0.25007691979408264,1.1414768695831299
-1.4086639881134033,-0.24888581037521362,1.127417802810669
-1.4088977575302124,-0.2477152943611145,1.1134916543960571
-1.4091286659240723,-0.2465648651123047,1.099694848060608
-1.4093577861785889,-0.24543429911136627,1.0860252380371094
-1.4095847606658936,-0.2443232238292694,1.0724799633026123
-1.4098104238510132,-0.2432313859462738,1.0590567588806152
-1.4100335836410522,-0.24215826392173767,1.0457521677017212
-1.4102548360824585,-0.2411036193370819,1.0325640439987183
-1.410474181175232,-0.24006712436676025,1.0194896459579468
-1.410691261291504,-0.23904837667942047,1.0065264701843262
-1.410906434059143,-0.23804715275764465,0.9936723709106445
-1.4111204147338867,-0.23706328868865967,0.980925440788269
-1.411332607269287,-0.2360963672399521,0.96828293800354
-1.4115430116653442,-0.23514610528945923,0.955742597579956
-1.411751389503479,-0.23421217501163483,0.9433021545410156
-1.41195809841156,-0.23329438269138336,0.9309595823287964
-1.4121636152267456,-0.2323925495147705,0.9187132120132446
-1.4123671054840088,-0.23150625824928284,0.9065604209899902
-1.4125696420669556,-0.23063544929027557,0.8944998979568481
-1.4127702713012695,-0.22977972030639648,0.8825290203094482
-1.4129695892333984,-0.22893893718719482,0.8706463575363159
-1.4131669998168945,-0.22811275720596313,0.8588495254516602
-1.4133633375167847,-0.22730110585689545,0.8471373319625854
-1.4135586023330688,-0.22650375962257385,0.8355080485343933
-1.4137520790100098,-0.2257203906774521,0.8239592909812927
-1.4139442443847656,-0.2249508649110794,0.8124897480010986
-1.4141356945037842,-0.22419504821300507,0.8010979294776917
-1.4143245220184326,-0.22345249354839325,0.789781391620636
-1.4145135879516602,-0.22272340953350067,0.7785398364067078
-1.4147006273269653,-0.22200730443000793,0.7673706412315369
-1.4148865938186646,-0.22130408883094788,0.7562726140022278
-1.415071725845337,-0.22061364352703094,0.7452445030212402
-1.415255069732666,-0.21993567049503326,0.7342842221260071
-1.4154376983642578,-0.21927013993263245,0.7233908772468567
-1.415619134902954,-0.2186167985200882,0.7125627994537354
-1.415799856185913,-0.21797557175159454,0.7017987966537476
-1.4159791469573975,-0.2173462212085724,0.6910972595214844
-1.4161573648452759,-0.21672861278057098,0.6804568767547607
-1.416335105895996,-0.21612268686294556,0.6698766350746155
-1.4165112972259521,-0.21552814543247223,0.6593546867370605
-1.4166866540908813,-0.2149449735879898,0.6488901972770691
-1.4168611764907837,-0.21437300741672516,0.638481855392456
-1.41703462600708,-0.21381206810474396,0.6281282305717468
-1.41720712184906,-0.21326208114624023,0.6178283095359802
-1.4173789024353027,-0.21272292733192444,0.6075809001922607
-1.417549729347229,-0.21219442784786224,0.5973847508430481
-1.4177197217941284,-0.2116764932870865,0.5872387290000916
-1.4178892374038696,-0.21116909384727478,0.5771419405937195
-1.4180575609207153,-0.21067196130752563,0.5670928359031677
-1.4182249307632446,-0.21018502116203308,0.5570905208587646
-1.4183917045593262,-0.20970824360847473,0.5471340417861938
-1.4185580015182495,-0.20924152433872223,0.5372223854064941
-1.418723225593567,-0.20878468453884125,0.5273542404174805
-1.4188883304595947,-0.2083377242088318,0.5175288915634155
-1.4190517663955688,-0.20790034532546997,0.5077448487281799
-1.419215202331543,-0.20747269690036774,0.49800166487693787
-1.4193779230117798,-0.20705457031726837,0.48829808831214905
-1.4195396900177002,-0.20664586126804352,0.4786330759525299
-1.419701099395752,-0.2062465399503708,0.46900588274002075
-1.4198617935180664,-0.20585650205612183,0.459415465593338
-1.4200221300125122,-0.20547565817832947,0.44986090064048767
-1.4201818704605103,-0.20510394871234894,0.4403412938117981
-1.4203402996063232,-0.20474116504192352,0.43085551261901855
-1.4204990863800049,-0.20438747107982635,0.42140311002731323
-1.4206568002700806,-0.20404259860515594,0.41198283433914185
-1.4208141565322876,-0.2037065625190735,0.4025939702987671
-1.4209706783294678,-0.20337922871112823,0.39323553442955017
-1.421127200126648,-0.20306065678596497,0.38390693068504333
-1.4212830066680908,-0.20275065302848816,0.3746070861816406
-1.421438217163086,-0.20244920253753662,0.3653351962566376
-1.4215930700302124,-0.20215626060962677,0.3560905158519745
-1.4217476844787598,-0.20187178254127502,0.3468722701072693
-1.421901822090149,-0.20159566402435303,0.33767956495285034
-1.4220548868179321,-0.20132780075073242,0.328511506319046
-1.4222081899642944,-0.20106826722621918,0.31936752796173096
-1.4223613739013672,-0.2008170187473297,0.3102468252182007
-1.4225136041641235,-0.2005738466978073,0.3011484444141388
-1.4226657152175903,-0.20033882558345795,0.29207175970077515
-1.4228174686431885,-0.20011188089847565,0.28301599621772766
-1.4229689836502075,-0.19989298284053802,0.27398037910461426
-1.4231196641921997,-0.19968201220035553,0.26496410369873047
-1.423270583152771,-0.19947904348373413,0.25596657395362854
-1.4234212636947632,-0.19928400218486786,0.2469870150089264
-1.423571228981018,-0.19909678399562836,0.23802459239959717
-1.4237207174301147,-0.19891735911369324,0.22907860577106476
-1.4238704442977905,-0.19874578714370728,0.2201484590768814
-1.424019694328308,-0.1985819786787033,0.21123337745666504
-1.4241687059402466,-0.19842588901519775,0.20233261585235596
-1.4243175983428955,-0.1982775181531906,0.19344551861286163
-1.4244662523269653,-0.1981368213891983,0.18457137048244476
-1.4246149063110352,-0.19800379872322083,0.17570948600769043
-1.4247632026672363,-0.1978783905506134,0.16685914993286133
-1.4249112606048584,-0.19776056706905365,0.15801967680454254
-1.425059199333191,-0.19765032827854156,0.14919041097164154
-1.4252066612243652,-0.19754761457443237,0.14037060737609863
-1.4253547191619873,-0.19745251536369324,0.13155969977378845
-1.4255019426345825,-0.19736485183238983,0.12275689095258713
-1.4256489276885986,-0.19728468358516693,0.11396154761314392
-1.425796389579773,-0.19721205532550812,0.10517305880784988
-1.4259434938430786,-0.19714687764644623,0.09639069437980652
-1.4260904788970947,-0.19708916544914246,0.0876137986779213
-1.4262375831604004,-0.197038933634758,0.07884171605110168
-1.4263837337493896,-0.19699601829051971,0.07007373869419098
-1.4265309572219849,-0.1969606876373291,0.061309296637773514
-1.4266775846481323,-0.19693270325660706,0.052547648549079895
-1.4268240928649902,-0.19691212475299835,0.04378815367817879
-1.4269709587097168,-0.19689904153347015,0.035030171275138855
-1.4271174669265747,-0.19689330458641052,0.02627301774919033
-1.4272642135620117,-0.19689501821994781,0.01751604676246643
-1.4274108409881592,-0.19690412282943726,0.00875859335064888
-1.4275575876235962,-0.19692064821720123,2.622294096597718e-16
-1.427704095840454,-0.19694456458091736,-0.008760392665863037
-1.4278509616851807,-0.1969759613275528,-0.017523247748613358
-1.427997350692749,-0.1970146894454956,-0.026289215311408043
-1.4281443357467651,-0.1970609426498413,-0.03505897521972656
-1.42829167842865,-0.19711467623710632,-0.04383319616317749
-1.428438425064087,-0.1971757709980011,-0.05261250212788582
-1.4285852909088135,-0.197244331240654,-0.06139758974313736
-1.4287327527999878,-0.19732043147087097,-0.07018914073705673
-1.428880214691162,-0.19740401208400726,-0.07898779958486557
-1.4290274381637573,-0.19749505817890167,-0.087794229388237
-1.4291751384735107,-0.19759367406368256,-0.09660914540290833
-1.4293230772018433,-0.19769985973834991,-0.10543320327997208
-1.4294706583023071,-0.19781352579593658,-0.11426703631877899
-1.4296185970306396,-0.1979348212480545,-0.12311139702796936
-1.4297668933868408,-0.19806373119354248,-0.1319669485092163
-1.4299155473709106,-0.1982002854347229,-0.14083437621593475
-1.4300642013549805,-0.19834449887275696,-0.1497143805027008
-1.4302128553390503,-0.19849637150764465,-0.1586076319217682
-1.430362343788147,-0.19865603744983673,-0.1675148904323578
-1.4305113554000854,-0.19882334768772125,-0.17643675208091736
-1.4306610822677612,-0.19899851083755493,-0.18537405133247375
-1.4308110475540161,-0.199181467294693,-0.1943274438381195
-1.43096125125885,-0.1993722766637802,-0.20329762995243073
-1.4311113357543945,-0.1995709091424942,-0.21228531002998352
-1.4312626123428345,-0.19977760314941406,-0.22129139304161072
-1.4314132928848267,-0.1999921351671219,-0.23031635582447052
-1.4315646886825562,-0.2002147138118744,-0.23936110734939575
-1.4317164421081543,-0.20044536888599396,-0.2484263777732849
-1.4318684339523315,-0.2006840705871582,-0.2575128376483917
-1.432020902633667,-0.20093096792697906,-0.2666213810443878
-1.4321740865707397,-0.20118607580661774,-0.2757527530193329
-1.432327151298523,-0.20144936442375183,-0.28490757942199707
-1.4324809312820435,-0.20172099769115448,-0.2940868139266968
-1.4326345920562744,-0.20200088620185852,-0.30329105257987976
-1.4327895641326904,-0.20228931307792664,-0.31252142786979675
-3.2711775302886963,-0.46247097849845886,-0.7345674633979797
-1.3903616666793823,-0.423770546913147,2.52612042427063
-1.3908655643463135,-0.4192580580711365,2.4907338619232178
-1.3913812637329102,-0.41486281156539917,2.4561314582824707
-1.391816258430481,-0.4105533957481384,2.422123670578003
-1.3922936916351318,-0.40636274218559265,2.388902187347412
-1.3928003311157227,-0.4022829532623291,2.3564164638519287
-1.3932344913482666,-0.3982812762260437,2.3244712352752686
-1.393670916557312,-0.3943761885166168,2.2931718826293945
-1.3941216468811035,-0.3905678987503052,2.2625162601470947
-1.3945159912109375,-0.3868336081504822,2.2323694229125977
-1.3949403762817383,-0.38319459557533264,2.2028515338897705
-1.3953040838241577,-0.37962326407432556,2.1738007068634033
-1.395726203918457,-0.376149445772171,2.145385265350342
-1.3961280584335327,-0.3727491796016693,2.117465019226074
-1.3964588642120361,-0.36940670013427734,2.0899484157562256
-1.396851658821106,-0.36615511775016785,2.0630202293395996
-1.3971657752990723,-0.36295512318611145,2.0364558696746826
-1.3975164890289307,-0.35983484983444214,2.0104117393493652
-1.3978363275527954,-0.3567747175693512,1.9847750663757324
-1.3982012271881104,-0.3537921905517578,1.959640622138977
-1.3984977006912231,-0.3508565127849579,1.9348355531692505
-1.3988385200500488,-0.34799444675445557,1.9105051755905151
-1.3991308212280273,-0.3451809585094452,1.8865095376968384
-1.3994122743606567,-0.34242385625839233,1.8628896474838257
-1.3997178077697754,-0.3397301137447357,1.8396809101104736
-1.399993658065796,-0.33708494901657104,1.8168010711669922
-1.4002854824066162,-0.33449801802635193,1.7943000793457031
-1.4005463123321533,-0.3319565951824188,1.7721071243286133
-1.400815725326538,-0.3294687569141388,1.7502639293670654
-1.4010498523712158,-0.32702282071113586,1.7287060022354126
-1.401311993598938,-0.3246324062347412,1.7075036764144897
-1.4015555381774902,-0.3222852945327759,1.6865901947021484
-1.4018155336380005,-0.3199883997440338,1.6660000085830688
-1.4020413160324097,-0.3177289366722107,1.6456645727157593
-1.40224027633667,-0.3155076503753662,1.6255861520767212
-1.4024889469146729,-0.3133406639099121,1.6058458089828491
-1.4026817083358765,-0.3112032115459442,1.5863146781921387
-1.4029017686843872,-0.3091128468513489,1.5670809745788574
-1.4031164646148682,-0.3070613741874695,1.548100471496582
-1.4032963514328003,-0.3050413727760315,1.529334545135498
-1.4034976959228516,-0.3030642569065094,1.5108391046524048
-1.4036751985549927,-0.301119327545166,1.492558479309082
-1.4038684368133545,-0.2992141842842102,1.4745291471481323
-1.4040473699569702,-0.29734164476394653,1.4567135572433472
-1.4042176008224487,-0.29550209641456604,1.4391123056411743
-1.4043848514556885,-0.29369595646858215,1.421725869178772
-1.4046545028686523,-0.29194435477256775,1.4046545028686523
-1.4049373865127563,-0.29022783041000366,1.387801170349121
-1.405216932296753,-0.28854212164878845,1.3711440563201904
-1.4054926633834839,-0.2868865430355072,1.3546783924102783
-1.4057652950286865,-0.28526052832603455,1.338399887084961
-1.4060354232788086,-0.2836635708808899,1.3223047256469727
-1.4063024520874023,-0.28209492564201355,1.3063881397247314
-1.4065662622451782,-0.2805539667606354,1.2906458377838135
-1.4068278074264526,-0.2790403366088867,1.2750743627548218
-1.40708589553833,-0.2775532007217407,1.2596690654754639
-1.4073415994644165,-0.2760922610759735,1.2444266080856323
-1.407594084739685,-0.2746568024158478,1.2293429374694824
-1.4078445434570312,-0.27324649691581726,1.2144150733947754
-1.4080923795700073,-0.271860808134079,1.199639081954956
-1.4083378314971924,-0.27049922943115234,1.185011863708496
-1.4085804224014282,-0.26916125416755676,1.1705296039581299
-1.408820629119873,-0.2678464651107788,1.156189203262329
-1.4090588092803955,-0.2665545344352722,1.1419880390167236
-1.409294843673706,-0.265284925699234,1.127922773361206
-1.409528374671936,-0.26403722167015076,1.113990068435669
-1.409759759902954,-0.2628110349178314,1.1001873016357422
-1.4099889993667603,-0.26160597801208496,1.0865116119384766
-1.4102160930633545,-0.2604217231273651,1.072960376739502
-1.4104417562484741,-0.2592579424381256,1.0595310926437378
-1.4106650352478027,-0.2581140995025635,1.0462204217910767
-1.4108860492706299,-0.25698989629745483,1.033026099205017
-1.4111055135726929,-0.2558850944042206,1.0199459791183472
-1.4113225936889648,-0.2547992169857025,1.0069769620895386
-1.4115382432937622,-0.2537321150302887,0.9941173791885376
-1.4117521047592163,-0.2526833713054657,0.9813646078109741
-1.4119644165039062,-0.25165271759033203,0.9687163829803467
-1.412174940109253,-0.2506398558616638,0.9561704397201538
-1.4123833179473877,-0.24964436888694763,0.9437243342399597
-1.4125900268554688,-0.24866610765457153,0.9313762784004211
-1.4127957820892334,-0.2477048635482788,0.9191244840621948
-1.4129993915557861,-0.24676018953323364,0.9069662690162659
-1.4132018089294434,-0.24583196640014648,0.8949002027511597
-1.4134025573730469,-0.24491985142230988,0.8829240202903748
-1.4136021137237549,-0.24402368068695068,0.8710360527038574
-1.4137994050979614,-0.24314303696155548,0.8592338562011719
-1.4139958620071411,-0.24227792024612427,0.8475165367126465
-1.4141912460327148,-0.24142804741859436,0.8358819484710693
-1.4143849611282349,-0.2405930757522583,0.8243281245231628
-1.4145768880844116,-0.23977278172969818,0.812853217124939
-1.4147685766220093,-0.23896721005439758,0.8014565110206604
-1.4149576425552368,-0.23817574977874756,0.7901349067687988
-1.4151463508605957,-0.23739856481552124,0.7788881659507751
-1.415333867073059,-0.23663532733917236,0.7677141427993774
-1.4155195951461792,-0.23588573932647705,0.7566109895706177
-1.4157050848007202,-0.23514984548091888,0.7455780506134033
-1.4158884286880493,-0.23442718386650085,0.7346128225326538
-1.4160709381103516,-0.23371775448322296,0.7237145304679871
-1.4162527322769165,-0.23302142322063446,0.7128817439079285
-1.416433334350586,-0.23233790695667267,0.7021128535270691
-1.4166128635406494,-0.23166710138320923,0.6914065480232239
-1.4167909622192383,-0.23100878298282623,0.6807613372802734
-1.4169690608978271,-0.23036296665668488,0.6701764464378357
-1.417144775390625,-0.22972919046878815,0.6596496105194092
-1.4173206090927124,-0.22910764813423157,0.6491805911064148
-1.4174952507019043,-0.22849799692630768,0.6387675404548645
-1.4176685810089111,-0.22790007293224335,0.6284092664718628
-1.4178414344787598,-0.22731387615203857,0.6181048154830933
-1.4180129766464233,-0.22673913836479187,0.6078526973724365
-1.4181839227676392,-0.22617584466934204,0.597652018070221
-1.4183540344238281,-0.22562378644943237,0.5875014662742615
-1.4185235500335693,-0.22508293390274048,0.5774000883102417
-1.4186921119689941,-0.22455306351184845,0.5673465728759766
-1.4188594818115234,-0.22403405606746674,0.5573397874832153
-1.419026255607605,-0.22352583706378937,0.5473788380622864
-1.4191925525665283,-0.22302836179733276,0.5374627113342285
-1.4193578958511353,-0.22254140675067902,0.5275901556015015
-1.4195232391357422,-0.2220650166273117,0.5177604556083679
-1.4196866750717163,-0.221598818898201,0.507972002029419
-1.41985023021698,-0.22114300727844238,0.4982244670391083
-1.4200127124786377,-0.220697283744812,0.4885164499282837
-1.4201749563217163,-0.22026170790195465,0.47884729504585266
-1.4203360080718994,-0.2198360115289688,0.46921563148498535
-1.420496940612793,-0.21942028403282166,0.45962095260620117
-1.4206573963165283,-0.21901436150074005,0.4500621557235718
-1.4208170175552368,-0.21861813962459564,0.4405382573604584
-1.4209755659103394,-0.2182314693927765,0.4310482442378998
-1.4211345911026,-0.21785447001457214,0.4215916395187378
-1.4212923049926758,-0.21748687326908112,0.41216713190078735
-1.4214497804641724,-0.2171287089586258,0.4027740955352783
-1.4216060638427734,-0.21677976846694946,0.39341139793395996
-1.4217627048492432,-0.21644020080566406,0.38407862186431885
-1.4219189882278442,-0.21610984206199646,0.3747747242450714
