-1.425542950630188,-0.031761668622493744,0.17582395672798157
-1.4256913661956787,-0.03174155205488205,0.16696785390377045
-1.425839900970459,-0.03172265738248825,0.15812265872955322
-1.4259878396987915,-0.03170497342944145,0.1492876261472702
-1.426135540008545,-0.03168850019574165,0.14046208560466766
-1.4262834787368774,-0.031673237681388855,0.13164542615413666
-1.4264308214187622,-0.03165917843580246,0.1228368803858757
-1.426578164100647,-0.03164632245898247,0.11403582990169525
-1.4267256259918213,-0.03163467347621918,0.10524160414934158
-1.4268726110458374,-0.031624216586351395,0.09645350277423859
-1.427019715309143,-0.03161495551466942,0.08767088502645493
-1.4271668195724487,-0.03160689398646355,0.07889308780431747
-1.4273134469985962,-0.031600020825862885,0.07011941075325012
-1.427460789680481,-0.031594354659318924,0.06134926155209541
-1.4276072978973389,-0.03158986195921898,0.05258189141750336
-1.4277540445327759,-0.03158656507730484,0.043816693127155304
-1.427901029586792,-0.03158446401357651,0.03505300357937813
-1.428047776222229,-0.031583547592163086,0.02629014477133751
-1.4281946420669556,-0.031583819538354874,0.017527464777231216
-1.4283415079116821,-0.03158528357744217,0.008764304220676422
-1.4284881353378296,-0.031587932258844376,2.6240035149643957e-16
-1.4286348819732666,-0.03159176930785179,-0.00876610353589058
-1.4287816286087036,-0.03159680217504501,-0.017534669488668442
-1.4289283752441406,-0.031603019684553146,-0.026306355372071266
-1.4290752410888672,-0.031610436737537384,-0.03508182615041733
-1.4292227029800415,-0.031619057059288025,-0.043861765414476395
-1.4293694496154785,-0.03162885457277298,-0.05264679715037346
-1.4295164346694946,-0.03163985162973404,-0.06143760681152344
-1.4296640157699585,-0.0316520631313324,-0.07023489475250244
-1.4298114776611328,-0.03166546672582626,-0.07903928309679031
-1.4299589395523071,-0.03168007358908653,-0.08785145729780197
-1.4301066398620605,-0.0316958911716938,-0.09667211025953293
-1.4302546977996826,-0.03171292319893837,-0.1055019274353981
-1.430402398109436,-0.03173115849494934,-0.11434152722358704
-1.4305505752563477,-0.03175061568617821,-0.12319164723157883
-1.4306988716125488,-0.03177129104733467,-0.1320529729127884
-1.4308475255966187,-0.031793199479579926,-0.14092618227005005
-1.4309964179992676,-0.031816333532333374,-0.14981196820735931
-1.4311453104019165,-0.031840696930885315,-0.1587110310792923
-1.4312947988510132,-0.03186630457639694,-0.1676240861415863
-1.4314438104629517,-0.03189314156770706,-0.17655174434185028
-1.4315937757492065,-0.03192124143242836,-0.18549489974975586
-1.4317436218261719,-0.03195058926939964,-0.1944541037082672
-1.4318938255310059,-0.03198119252920151,-0.20343013107776642
-1.4320441484451294,-0.03201305866241455,-0.21242369711399078
-1.4321955442428589,-0.03204621374607086,-0.22143563628196716
-1.432346224784851,-0.032080624252557755,-0.23046645522117615
-1.4324977397918701,-0.032116327434778214,-0.23951710760593414
-1.4326496124267578,-0.03215332701802254,-0.24858829379081726
-1.4328017234802246,-0.03219161927700043,-0.2576807141304016
-1.4329540729522705,-0.03223121538758278,-0.2667951285839081
-1.4331072568893433,-0.03227213770151138,-0.2759324312210083
-1.4332605600357056,-0.032314375042915344,-0.2850932478904724
-1.433414340019226,-0.032357946038246155,-0.29427844285964966
-1.4335682392120361,-0.032402846962213516,-0.30348870158195496
-1.4337230920791626,-0.032449107617139816,-0.3127250671386719
-1.390477180480957,-0.08928773552179337,2.5263302326202393
-1.390993356704712,-0.08833774924278259,2.4909629821777344
-1.39152193069458,-0.08741246163845062,2.4563796520233154
-1.391968846321106,-0.08650520443916321,2.422389268875122
-1.392449975013733,-0.08562243729829788,2.3891704082489014
-1.3929564952850342,-0.08476279675960541,2.3566806316375732
-1.3933898210525513,-0.08391956984996796,2.324730396270752
-1.3938254117965698,-0.0830966979265213,2.293426036834717
-1.3942738771438599,-0.08229413628578186,2.262763500213623
-1.3946646451950073,-0.08150709420442581,2.232607364654541
-1.395085334777832,-0.08074013888835907,2.203080415725708
-1.3954460620880127,-0.07998747378587723,2.1740219593048096
-1.395864725112915,-0.07925532758235931,2.1455981731414795
-1.3962637186050415,-0.07853872328996658,2.117670774459839
-1.3965946435928345,-0.07783446460962296,2.09015154838562
-1.3969895839691162,-0.07714946568012238,2.0632236003875732
-1.3973050117492676,-0.07647529989480972,2.036659002304077
-1.3976573944091797,-0.07581794261932373,2.0106143951416016
-1.3979781866073608,-0.07517321407794952,1.9849765300750732
-1.39834463596344,-0.07454486191272736,1.9598414897918701
-1.3986432552337646,-0.0739264264702797,1.9350368976593018
-1.3989864587783813,-0.07332350313663483,1.9107071161270142
-1.3992801904678345,-0.07273076474666595,1.8867110013961792
-1.3995628356933594,-0.07214989513158798,1.86309015750885
-1.3998693227767944,-0.0715823546051979,1.839880108833313
-1.4001463651657104,-0.0710250735282898,1.8169993162155151
-1.4004395008087158,-0.07048006355762482,1.7944974899291992
-1.4007010459899902,-0.0699446052312851,1.7723029851913452
-1.4009714126586914,-0.0694204568862915,1.7504584789276123
-1.4012060165405273,-0.06890511512756348,1.7288988828659058
-1.401469111442566,-0.06840148568153381,1.7076951265335083
-1.4017137289047241,-0.06790698319673538,1.686780571937561
-1.4019745588302612,-0.06742305308580399,1.6661889553070068
-1.4022010564804077,-0.06694702059030533,1.6458522081375122
-1.4024001359939575,-0.06647899001836777,1.6257715225219727
-1.4026477336883545,-0.06602233648300171,1.6060277223587036
-1.402839183807373,-0.06557190418243408,1.586492896080017
-1.4030580520629883,-0.06513140350580215,1.5672556161880493
-1.4032723903656006,-0.06469912081956863,1.5482723712921143
-1.4034513235092163,-0.06427345424890518,1.529503583908081
-1.4036521911621094,-0.06385684758424759,1.5110054016113281
-1.4038290977478027,-0.0634470134973526,1.4927220344543457
-1.404021143913269,-0.06304554641246796,1.4746894836425781
-1.4041988849639893,-0.06265093386173248,1.4568707942962646
-1.4043679237365723,-0.062263280153274536,1.439266324043274
-1.4045674800872803,-0.06188414618372917,1.4219107627868652
-1.4048137664794922,-0.061514049768447876,1.4048137664794922
-1.405097246170044,-0.061152383685112,1.3879590034484863
-1.4053767919540405,-0.060797203332185745,1.3713001012802124
-1.4056527614593506,-0.06044837087392807,1.354832649230957
-1.4059256315231323,-0.06010576710104942,1.338552474975586
-1.4061959981918335,-0.05976928770542145,1.322455644607544
-1.406463384628296,-0.05943877995014191,1.3065376281738281
-1.4067271947860718,-0.05911409854888916,1.290793538093567
-1.4069890975952148,-0.058795180171728134,1.2752206325531006
-1.4072474241256714,-0.058481842279434204,1.2598135471343994
-1.4075034856796265,-0.058174025267362595,1.2445697784423828
-1.4077560901641846,-0.05787157267332077,1.2294843196868896
-1.408007025718689,-0.05757443606853485,1.214555263519287
-1.4082549810409546,-0.0572824664413929,1.1997777223587036
-1.4085004329681396,-0.05699557438492775,1.1851487159729004
-1.4087432622909546,-0.05671366676688194,1.17066490650177
-1.4089839458465576,-0.056436654180288315,1.1563233137130737
-1.4092222452163696,-0.05616443231701851,1.1421204805374146
-1.4094583988189697,-0.05589692294597626,1.1280535459518433
-1.4096921682357788,-0.0556340366601944,1.114119529724121
-1.4099235534667969,-0.05537567287683487,1.1003150939941406
-1.410152792930603,-0.0551217645406723,1.0866378545761108
-1.4103803634643555,-0.05487224459648132,1.0730853080749512
-1.4106061458587646,-0.054627034813165665,1.0596545934677124
-1.4108295440673828,-0.05438602715730667,1.0463424921035767
-1.41105055809021,-0.05414915084838867,1.033146619796753
-1.4112703800201416,-0.05391637235879898,1.020065188407898
-1.4114878177642822,-0.05368758738040924,1.0070948600769043
-1.41170334815979,-0.053462736308574677,0.9942336678504944
-1.4119172096252441,-0.05324175953865051,0.9814793467521667
-1.4121297597885132,-0.05302460864186287,0.9688298106193542
-1.412340521812439,-0.05281119793653488,0.9562826156616211
-1.4125488996505737,-0.052601441740989685,0.9438349604606628
-1.4127558469772339,-0.05239532142877579,0.9314855337142944
-1.4129618406295776,-0.05219279229640961,0.9192324876785278
-1.4131654500961304,-0.05199374258518219,0.9070728421211243
-1.4133681058883667,-0.05179816484451294,0.895005464553833
-1.4135690927505493,-0.05160599201917648,0.8830280303955078
-1.4137687683105469,-0.051417164504528046,0.8711387515068054
-1.413966178894043,-0.051231611520051956,0.8593352437019348
-1.4141627550125122,-0.051049329340457916,0.8476164937019348
-1.414358139038086,-0.05087025463581085,0.8359805941581726
-1.4145519733428955,-0.05069432780146599,0.824425458908081
-1.414744257926941,-0.050521500408649445,0.8129494190216064
-1.4149359464645386,-0.05035175755620003,0.8015512824058533
-1.4151250123977661,-0.05018499493598938,0.7902284264564514
-1.4153140783309937,-0.050021249800920486,0.7789804935455322
-1.4155017137527466,-0.049860429018735886,0.7678051590919495
-1.4156876802444458,-0.04970249533653259,0.7567008137702942
-1.4158729314804077,-0.049547430127859116,0.7456664443016052
-1.4160566329956055,-0.04939517006278038,0.734700083732605
-1.4162393808364868,-0.04924570024013519,0.7238005995750427
-1.4164211750030518,-0.04909897595643997,0.7129665017127991
-1.4166018962860107,-0.04895495995879173,0.7021963596343994
-1.4167814254760742,-0.04881361499428749,0.6914888024330139
-1.4169601202011108,-0.048674922436475754,0.6808425784111023
-1.4171377420425415,-0.04853883385658264,0.6702562570571899
-1.417314052581787,-0.04840530827641487,0.6597284078598022
-1.4174896478652954,-0.04827433452010155,0.6492579579353333
-1.4176642894744873,-0.04814588278532028,0.6388437747955322
-1.4178380966186523,-0.04801991209387779,0.6284844279289246
-1.418010950088501,-0.04789639264345169,0.6181787252426147
-1.4181828498840332,-0.047775302082300186,0.6079254746437073
-1.4183539152145386,-0.04765661433339119,0.5977236032485962
-1.4185237884521484,-0.047540292143821716,0.5875717997550964
-1.4186937808990479,-0.047426339238882065,0.5774693489074707
-1.4188621044158936,-0.04731468856334686,0.5674145817756653
-1.4190298318862915,-0.04720533639192581,0.5574067234992981
-1.4191964864730835,-0.047098252922296524,0.5474445223808289
-1.4193631410598755,-0.046993438154459,0.5375272631645203
-1.4195284843444824,-0.04689083620905876,0.5276535749435425
-1.4196937084197998,-0.04679045453667641,0.5178226232528687
-1.419857144355774,-0.046692222356796265,0.508033037185669
-1.4200210571289062,-0.04659619182348251,0.4982844293117523
-1.4201836585998535,-0.04650227725505829,0.488575279712677
-1.420345664024353,-0.046410493552684784,0.4789048433303833
-1.4205070734024048,-0.046320803463459015,0.4692721664905548
-1.420668125152588,-0.04623321071267128,0.4596763551235199
-1.4208287000656128,-0.04614768549799919,0.45011642575263977
-1.4209882020950317,-0.04606419429183006,0.44059133529663086
-1.421147108078003,-0.045982725918293,0.4311002492904663
-1.4213058948516846,-0.0459032878279686,0.4216424822807312
-1.4214634895324707,-0.04582582786679268,0.41221678256988525
-1.421621322631836,-0.045750368386507034,0.40282267332077026
-1.4217779636383057,-0.04567685350775719,0.3934589624404907
-1.4219344854354858,-0.04560530558228493,0.3841250240802765
-1.4220905303955078,-0.04553568735718727,0.37481993436813354
-1.422245979309082,-0.04546798765659332,0.36554282903671265
-1.422400951385498,-0.04540219530463219,0.35629287362098694
-1.4225555658340454,-0.04533829912543297,0.3470693528652191
-1.4227100610733032,-0.045276299118995667,0.3378715217113495
-1.4228633642196655,-0.045216139405965805,0.3286982476711273
-1.4230165481567383,-0.04515784978866577,0.3195490539073944
-1.4231699705123901,-0.04510142281651497,0.31042319536209106
-1.4233224391937256,-0.045046813786029816,0.3013196587562561
-1.4234745502471924,-0.04499403014779091,0.2922378182411194
-1.4236263036727905,-0.04494306072592735,0.28317689895629883
-1.4237778186798096,-0.044893890619277954,0.27413612604141235
-1.4239287376403809,-0.044846512377262115,0.26511475443840027
-1.4240798950195312,-0.04480093717575073,0.25611212849617004
-1.4242305755615234,-0.04475713148713112,0.2471274435520172
-1.4243806600570679,-0.04471508041024208,0.2381599098443985
-1.4245303869247437,-0.04467478767037392,0.22920888662338257
-1.4246798753738403,-0.04463624954223633,0.22027362883090973
-1.4248296022415161,-0.044599469751119614,0.21135351061820984
-1.4249786138534546,-0.04456440731883049,0.20244766771793365
-1.4251277446746826,-0.044531095772981644,0.193555548787117
-1.4252763986587524,-0.04449949041008949,0.18467633426189423
-1.4254249334335327,-0.04446961358189583,0.17580939829349518
-1.4255735874176025,-0.044441454112529755,0.16695405542850494
-1.4257217645645142,-0.04441499337553978,0.15810956060886383
-1.4258695840835571,-0.044390227645635605,0.14927524328231812
-1.426017165184021,-0.04436715692281723,0.14045043289661407
-1.4261653423309326,-0.04434580355882645,0.13163453340530396
-1.4263126850128174,-0.044326115399599075,0.1228267028927803
-1.426459789276123,-0.04430811107158661,0.11402636766433716
-1.4266072511672974,-0.04429180175065994,0.10523287951946259
-1.4267545938491821,-0.044277165085077286,0.09644551575183868
-1.4269015789031982,-0.04426420107483864,0.08766362816095352
-1.427048683166504,-0.0442529134452343,0.07888655364513397
-1.4271951913833618,-0.04424328729510307,0.07011360675096512
-1.427342414855957,-0.04423534497618675,0.061344169080257416
-1.427489161491394,-0.044229064136743546,0.052577536553144455
-1.427635669708252,-0.044224441051483154,0.043813060969114304
-1.4277827739715576,-0.044221505522727966,0.035050101578235626
-1.4279295206069946,-0.044220220297575,0.026287967339158058
-1.4280762672424316,-0.04422060400247574,0.017526013776659966
-1.4282230138778687,-0.044222649186849594,0.008763576857745647
-1.4283696413040161,-0.044226355850696564,2.623785668678274e-16
-1.4285166263580322,-0.04423173889517784,-0.008765378035604954
-1.4286633729934692,-0.044238779693841934,-0.01753321662545204
-1.4288100004196167,-0.04424748942255974,-0.026304176077246666
-1.4289567470550537,-0.044257864356040955,-0.03507892042398453
-1.4291043281555176,-0.04426993802189827,-0.043858133256435394
-1.4292513132095337,-0.0442836619913578,-0.05264244228601456
-1.4293980598449707,-0.04429905489087105,-0.06143251433968544
-1.429545521736145,-0.04431614652276039,-0.07022906839847565
-1.4296927452087402,-0.044334910809993744,-0.07903271913528442
-1.429840326309204,-0.0443553663790226,-0.08784417808055878
-1.4299880266189575,-0.044377509504556656,-0.09666409343481064
-1.4301362037658691,-0.04440136253833771,-0.10549318045377731
-1.4302839040756226,-0.04442689195275307,-0.11433205008506775
-1.4304319620132446,-0.04445413127541542,-0.12318143993616104
-1.4305803775787354,-0.044483084231615067,-0.1320420354604721
-1.4307290315628052,-0.0445137545466423,-0.14091451466083527
-1.430877923965454,-0.04454614594578743,-0.14979957044124603
-1.431026816368103,-0.044580258429050446,-0.15869788825511932
-1.4311760663986206,-0.044616106897592545,-0.16761018335819244
-1.4313251972198486,-0.04465368762612343,-0.17653712630271912
-1.431475281715393,-0.044693030416965485,-0.185479536652565
-1.4316250085830688,-0.04473411664366722,-0.19443799555301666
-1.4317750930786133,-0.04477696493268013,-0.20341326296329498
-1.431925654411316,-0.04482158645987511,-0.21240609884262085
-1.4320769309997559,-0.04486800357699394,-0.22141730785369873
-1.432227611541748,-0.04491618275642395,-0.23044738173484802
-1.4323790073394775,-0.04496616870164871,-0.23949725925922394
-1.4325309991836548,-0.045017972588539124,-0.24856770038604736
-1.4326828718185425,-0.04507158324122429,-0.25765934586524963
-1.432835578918457,-0.045127034187316895,-0.2667730450630188
-1.4329886436462402,-0.04518432542681694,-0.27590957283973694
-1.4331419467926025,-0.045243460685014725,-0.28506964445114136
-1.4332958459854126,-0.04530446603894234,-0.2942541241645813
-1.433449625968933,-0.04536733031272888,-0.3034636080265045
-1.4336044788360596,-0.04543209820985794,-0.31269916892051697
-1.3903062343597412,-0.11480836570262909,2.526019811630249
-1.390822410583496,-0.11358685046434402,2.490656852722168
-1.3913507461547852,-0.11239708960056305,2.4560775756835938
-1.3917979001998901,-0.1112305298447609,2.4220919609069824
-1.3922789096832275,-0.11009543389081955,2.3888769149780273
-1.3927851915359497,-0.10899008065462112,2.356390953063965
-1.393218755722046,-0.10790585726499557,2.3244450092315674
-1.3936541080474854,-0.10684777796268463,2.2931442260742188
-1.3941035270690918,-0.10581590235233307,2.2624869346618652
-1.3944940567016602,-0.10480388253927231,2.2323341369628906
-1.3949145078659058,-0.10381770133972168,2.202810764312744
-1.3952752351760864,-0.10284990817308426,2.173755645751953
-1.3956940174102783,-0.10190851241350174,2.1453356742858887
-1.3960927724838257,-0.10098706185817719,2.1174113750457764
-1.3964236974716187,-0.10008151829242706,2.089895725250244
-1.3968188762664795,-0.09920074790716171,2.062971591949463
-1.3971340656280518,-0.09833387285470963,2.036409854888916
-1.3974863290786743,-0.09748861938714981,2.0103683471679688
-1.3978071212768555,-0.09665961563587189,1.9847337007522583
-1.3981733322143555,-0.09585165977478027,1.9596015214920044
-1.3984715938568115,-0.0950564295053482,1.9347994327545166
-1.3988145589828491,-0.0942811593413353,1.9104723930358887
-1.3991081714630127,-0.09351900219917297,1.8864790201187134
-1.3993905782699585,-0.09277208894491196,1.8628607988357544
-1.399697184562683,-0.09204234182834625,1.839653730392456
-1.3999743461608887,-0.0913257896900177,1.8167760372161865
-1.4002673625946045,-0.09062499552965164,1.7942767143249512
-1.4005286693572998,-0.08993647992610931,1.7720848321914673
-1.400799036026001,-0.08926251530647278,1.750243067741394
-1.4010335206985474,-0.08859986811876297,1.728685975074768
-1.401296615600586,-0.08795228600502014,1.7074848413467407
-1.4015411138534546,-0.08731644600629807,1.686572790145874
-1.4018019437789917,-0.08669420331716537,1.66598379611969
-1.4020285606384277,-0.0860821008682251,1.6456495523452759
-1.4022278785705566,-0.08548031747341156,1.625571846961975
-1.4024758338928223,-0.08489316701889038,1.6058309078216553
-1.4026674032211304,-0.08431399613618851,1.5862985849380493
-1.4028865098953247,-0.08374760299921036,1.567063808441162
-1.4031007289886475,-0.08319176733493805,1.5480830669403076
-1.4032795429229736,-0.08264443278312683,1.5293163061141968
-1.4034802913665771,-0.0821087434887886,1.5108203887939453
-1.403657078742981,-0.08158175647258759,1.4925391674041748
-1.4038490056991577,-0.08106553554534912,1.4745087623596191
-1.404026985168457,-0.08055815100669861,1.4566924571990967
-1.4041959047317505,-0.08005968481302261,1.4390900135040283
-1.4043618440628052,-0.07957028597593307,1.4217026233673096
-1.404641032218933,-0.07909627258777618,1.404641032218933
-1.4049243927001953,-0.07863122969865799,1.3877882957458496
-1.4052040576934814,-0.07817453891038895,1.3711316585540771
-1.405479907989502,-0.07772599160671234,1.354665994644165
-1.4057526588439941,-0.07728546112775803,1.3383878469467163
-1.4060231447219849,-0.07685282081365585,1.3222931623458862
-1.4062904119491577,-0.07642783969640732,1.3063769340515137
-1.4065543413162231,-0.07601035386323929,1.2906347513198853
-1.4068161249160767,-0.0756002813577652,1.2750637531280518
-1.407074213027954,-0.07519737631082535,1.2596585750579834
-1.4073301553726196,-0.07480157911777496,1.2444164752960205
-1.4075829982757568,-0.07441268861293793,1.2293331623077393
-1.4078335762023926,-0.07403060048818588,1.2144056558609009
-1.4080816507339478,-0.07365518808364868,1.1996300220489502
-1.4083269834518433,-0.07328629493713379,1.1850028038024902
-1.4085698127746582,-0.07292380928993225,1.1705207824707031
-1.4088104963302612,-0.07256761938333511,1.1561808586120605
-1.4090486764907837,-0.07221759110689163,1.1419798135757446
-1.4092847108840942,-0.07187362015247345,1.1279146671295166
-1.409518837928772,-0.07153560221195221,1.1139824390411377
-1.409749984741211,-0.07120338827371597,1.100179672241211
-1.409979224205017,-0.07087690383195877,1.0865041017532349
-1.4102067947387695,-0.07055606693029404,1.072953224182129
-1.4104323387145996,-0.07024075835943222,1.0595240592956543
-1.4106557369232178,-0.06993086636066437,1.0462136268615723
-1.410876989364624,-0.06962630152702332,1.0330195426940918
-1.4110965728759766,-0.0693269819021225,1.0199395418167114
-1.4113138914108276,-0.06903279572725296,1.006970763206482
-1.4115294218063354,-0.06874367594718933,0.994111180305481
-1.4117431640625,-0.06845953315496445,0.9813583493232727
-1.41195547580719,-0.06818030774593353,0.9687103033065796
-1.4121664762496948,-0.06790591031312943,0.9561647176742554
-1.4123748540878296,-0.06763620674610138,0.943718671798706
-1.4125816822052002,-0.06737116724252701,0.931370735168457
-1.4127877950668335,-0.06711075454950333,0.9191192388534546
-1.4129911661148071,-0.0668547973036766,0.9069609045982361
-1.413193702697754,-0.06660332530736923,0.8948950171470642
-1.413394808769226,-0.06635621935129166,0.8829191327095032
-1.413594365119934,-0.0661134272813797,0.8710312843322754
-1.4137917757034302,-0.06587483733892441,0.8592292666435242
-1.4139882326126099,-0.06564044952392578,0.8475119471549988
-1.4141837358474731,-0.06541019678115845,0.835877537727356
-1.4143775701522827,-0.06518398225307465,0.8243237733840942
-1.4145697355270386,-0.0649617537856102,0.8128491044044495
-1.4147615432739258,-0.0647435113787651,0.8014525175094604
-1.4149506092071533,-0.06452907621860504,0.7901309728622437
-1.4151397943496704,-0.06431853026151657,0.7788844704627991
-1.4153271913528442,-0.06411173939704895,0.7677105069160461
-1.415513038635254,-0.0639086589217186,0.7566075325012207
-1.4156982898712158,-0.06370927393436432,0.7455744743347168
-1.4158819913864136,-0.06351350247859955,0.7346094846725464
-1.416064739227295,-0.0633213073015213,0.7237113118171692
-1.4162465333938599,-0.063132643699646,0.7128785848617554
-1.4164268970489502,-0.06294745206832886,0.7021096348762512
-1.4166065454483032,-0.06276571750640869,0.6914035081863403
-1.4167852401733398,-0.06258738040924072,0.680758535861969
-1.4169628620147705,-0.06241239234805107,0.6701735258102417
-1.4171392917633057,-0.062240712344646454,0.6596470475196838
-1.4173146486282349,-0.06207229197025299,0.6491778492927551
-1.4174896478652954,-0.06190713495016098,0.6387650370597839
-1.4176630973815918,-0.06174514815211296,0.628406822681427
-1.41783607006073,-0.06158633530139923,0.618102490901947
-1.418007731437683,-0.06143062189221382,0.6078504323959351
-1.4181787967681885,-0.06127801164984703,0.5976498126983643
-1.418348789215088,-0.06112844496965408,0.5874993205070496
-1.4185187816619873,-0.060981929302215576,0.5773981213569641
-1.418687105178833,-0.06083836033940315,0.567344605922699
-1.4188547134399414,-0.060697752982378006,0.5573379397392273
-1.419021725654602,-0.06056007370352745,0.5473770499229431
-1.4191877841949463,-0.0604252815246582,0.5374608635902405
-1.4193532466888428,-0.06029335781931877,0.527588427066803
-1.4195185899734497,-0.06016429141163826,0.5177587866783142
-1.4196817874908447,-0.06003797426819801,0.5079702734947205
-1.4198458194732666,-0.059914495795965195,0.4982229471206665
-1.4200083017349243,-0.05979373678565025,0.4885149598121643
-1.4201704263687134,-0.05967571958899498,0.4788457751274109
-1.4203318357467651,-0.05956040322780609,0.4692142605781555
-1.4204927682876587,-0.0594477653503418,0.45961958169937134
-1.4206533432006836,-0.0593377947807312,0.4500608742237091
-1.420812964439392,-0.05923044681549072,0.4405370056629181
-1.4209717512130737,-0.059125691652297974,0.4310470521450043
-1.4211305379867554,-0.059023547917604446,0.4215904474258423
-1.4212881326675415,-0.05892394855618477,0.41216591000556946
-1.421445608139038,-0.058826908469200134,0.4027729034423828
-1.4216026067733765,-0.058732397854328156,0.39341041445732117
-1.421758770942688,-0.05864037945866585,0.3840775489807129
-1.421915054321289,-0.058550875633955,0.37477368116378784
-1.4220705032348633,-0.05846382677555084,0.3654977083206177
-1.4222254753112793,-0.05837923288345337,0.3562489449977875
-1.422379970550537,-0.05829707160592079,0.347026526927948
-1.4225343465805054,-0.05821734294295311,0.3378297984600067
-1.4226876497268677,-0.05813999101519585,0.3286576569080353
-1.4228408336639404,-0.05806504189968109,0.3195095956325531
-1.4229944944381714,-0.057992491871118546,0.31038492918014526
-1.4231466054916382,-0.05792226642370224,0.30128246545791626
-1.423298954963684,-0.05785439908504486,0.2922017574310303
-1.4234503507614136,-0.057788848876953125,0.2831418812274933
-1.4236021041870117,-0.05772564187645912,0.2741023004055023
-1.423753023147583,-0.057664718478918076,0.2650820016860962
-1.4239041805267334,-0.05760611593723297,0.2560805380344391
-1.424054741859436,-0.05754978582262993,0.2470969259738922
-1.4242048263549805,-0.05749572068452835,0.23813052475452423
-1.4243545532226562,-0.05744390934705734,0.22918057441711426
-1.4245041608810425,-0.0573943592607975,0.22024644911289215
-1.4246537685394287,-0.05734706297516823,0.2113274186849594
-1.4248027801513672,-0.05730198696255684,0.20242269337177277
-1.4249519109725952,-0.05725914612412453,0.19353166222572327
-1.425100564956665,-0.0572185143828392,0.18465355038642883
-1.4252488613128662,-0.05718008801341057,0.17578768730163574
-1.425397515296936,-0.05714387819170952,0.16693344712257385
-1.425545573234558,-0.05710984766483307,0.1580900251865387
-1.4256937503814697,-0.05707801878452301,0.14925682544708252
-1.4258413314819336,-0.057048358023166656,0.14043311774730682
-1.4259892702102661,-0.0570208914577961,0.13161827623844147
-1.4261366128921509,-0.05699557811021805,0.12281154841184616
-1.426283597946167,-0.05697241798043251,0.11401227861642838
-1.4264312982559204,-0.056951455771923065,0.10521989315748215
-1.426578164100647,-0.05693262815475464,0.0964336022734642
-1.4267253875732422,-0.05691596493124962,0.08765280246734619
-1.4268722534179688,-0.05690144747495651,0.0788768082857132
-1.4270188808441162,-0.056889068335294724,0.0701049417257309
-1.427166223526001,-0.056878864765167236,0.06133659929037094
-1.4273127317428589,-0.056870780885219574,0.052571043372154236
-1.4274592399597168,-0.05686483532190323,0.04380764812231064
-1.427606463432312,-0.05686106160283089,0.035045769065618515
-1.4277530908584595,-0.05685941129922867,0.0262847188860178
-1.427899956703186,-0.056859903037548065,0.01752384752035141
-1.4280468225479126,-0.056862540543079376,0.008762495592236519
-1.4281933307647705,-0.05686730146408081,2.623461943273745e-16
-1.428340196609497,-0.05687422305345535,-0.00876429583877325
-1.4284868240356445,-0.056883275508880615,-0.017531052231788635
-1.428633689880371,-0.05689448118209839,-0.026300931349396706
-1.4287805557250977,-0.05690782517194748,-0.035074591636657715
-1.4289276599884033,-0.05692332983016968,-0.043852709233760834
-1.4290746450424194,-0.05694098398089409,-0.05263593792915344
-1.429221749305725,-0.05696079134941101,-0.061424944549798965
-1.4293690919876099,-0.05698275938630104,-0.07022040337324142
-1.4295165538787842,-0.057006895542144775,-0.07902298122644424
-1.429663896560669,-0.05703318864107132,-0.08783333748579025
-1.4298114776611328,-0.057061661034822464,-0.09665215760469437
-1.4299596548080444,-0.0570923276245594,-0.10548015683889389
-1.4301074743270874,-0.057125162333250046,-0.11431794613599777
-1.4302555322647095,-0.05716019123792648,-0.12316624075174332
-1.430403709411621,-0.057197410613298416,-0.13202571868896484
-1.430552363395691,-0.05723685026168823,-0.14089711010456085
-1.4307013750076294,-0.057278502732515335,-0.14978107810020447
-1.4308499097824097,-0.05732234939932823,-0.15867826342582703
-1.430999517440796,-0.05736846104264259,-0.16758950054645538
-1.4311482906341553,-0.05741676688194275,-0.17651531100273132
-1.4312984943389893,-0.05746736377477646,-0.18545663356781006
-1.4314484596252441,-0.057520199567079544,-0.19441400468349457
-1.431598424911499,-0.0575752928853035,-0.20338815450668335
-1.431748628616333,-0.057632654905319214,-0.2123798429965973
-1.431900143623352,-0.05769234895706177,-0.22138996422290802
-1.4320508241653442,-0.05775430053472519,-0.23041893541812897
-1.4322022199630737,-0.05781857669353485,-0.23946771025657654
-1.4323540925979614,-0.05788518488407135,-0.24853701889514923
-1.4325059652328491,-0.05795411393046379,-0.2576275169849396
-1.4326586723327637,-0.05802541226148605,-0.2667401134967804
-1.4328118562698364,-0.058099083602428436,-0.2758755385875702
-1.4329649209976196,-0.058175116777420044,-0.2850344479084015
-1.4331188201904297,-0.058253560215234756,-0.2942177653312683
-1.4332726001739502,-0.05833439156413078,-0.3034261465072632
-1.433427333831787,-0.0584176741540432,-0.3126605451107025
-1.3904489278793335,-0.1403723657131195,2.5262789726257324
-1.3909653425216675,-0.13887886703014374,2.490912675857544
-1.3914936780929565,-0.13742418587207794,2.456329822540283
-1.3919405937194824,-0.13599784672260284,2.422340154647827
-1.3924214839935303,-0.13460999727249146,2.3891215324401855
-1.3929280042648315,-0.13325852155685425,2.3566324710845947
-1.3933614492416382,-0.13193286955356598,2.32468318939209
-1.3937970399856567,-0.1306392103433609,2.293379545211792
-1.3942466974258423,-0.1293775886297226,2.26271915435791
-1.3946373462677002,-0.12814022600650787,2.2325634956359863
-1.395058035850525,-0.1269344687461853,2.2030375003814697
-1.3954187631607056,-0.12575118243694305,2.1739792823791504
-1.3958377838134766,-0.12460018694400787,2.145556688308716
-1.396236538887024,-0.12347356975078583,2.1176295280456543
-1.3965673446655273,-0.12236636132001877,2.0901105403900146
-1.3969625234603882,-0.12128946930170059,2.0631837844848633
-1.3972779512405396,-0.12022958695888519,2.0366194248199463
-1.397630214691162,-0.11919611692428589,2.010575294494629
-1.3979508876800537,-0.11818251013755798,1.9849376678466797
-1.3983169794082642,-0.11719463765621185,1.9598027467727661
-1.398614525794983,-0.11622228473424911,1.9349972009658813
-1.3989568948745728,-0.1152743324637413,1.910666823387146
-1.3992505073547363,-0.11434245854616165,1.8866709470748901
-1.3995332717895508,-0.11342927813529968,1.8630508184432983
-1.3998397588729858,-0.11253702640533447,1.8398412466049194
-1.4001164436340332,-0.11166087538003922,1.8169605731964111
-1.4004098176956177,-0.11080405861139297,1.794459342956543
-1.400671124458313,-0.10996223986148834,1.772265076637268
-1.4009416103363037,-0.10913820564746857,1.750421166419983
-1.4011759757995605,-0.10832800716161728,1.7288618087768555
-1.40143883228302,-0.1075362116098404,1.7076581716537476
-1.4016835689544678,-0.10675880312919617,1.6867443323135376
-1.4019442796707153,-0.10599800199270248,1.666153073310852
-1.4021707773208618,-0.10524959862232208,1.6458165645599365
-1.4023706912994385,-0.10451385378837585,1.6257373094558716
-1.4026193618774414,-0.10379602015018463,1.6059951782226562
-1.4028111696243286,-0.1030878946185112,1.586461067199707
-1.4030303955078125,-0.10239540040493011,1.5672247409820557
-1.4032448530197144,-0.1017158105969429,1.5482420921325684
-1.40342378616333,-0.1010466068983078,1.5294735431671143
-1.4036245346069336,-0.10039163380861282,1.51097571849823
-1.4038012027740479,-0.09974730014801025,1.4926923513412476
-1.4039931297302246,-0.09911612421274185,1.474660038948059
-1.4041712284088135,-0.09849578142166138,1.456842064857483
-1.4043400287628174,-0.09788630902767181,1.4392377138137817
-1.4045062065124512,-0.09728794544935226,1.4218487739562988
-1.4047839641571045,-0.09670829027891159,1.4047839641571045
-1.4050670862197876,-0.09613968431949615,1.3879293203353882
-1.4053471088409424,-0.09558132290840149,1.3712711334228516
-1.4056227207183838,-0.09503288567066193,1.3548036813735962
-1.4058955907821655,-0.09449426829814911,1.3385238647460938
-1.4061660766601562,-0.09396529197692871,1.3224276304244995
-1.40643310546875,-0.09344566613435745,1.3065094947814941
-1.4066972732543945,-0.0929352343082428,1.2907660007476807
-1.406958818435669,-0.09243384003639221,1.275193214416504
-1.4072171449661255,-0.0919412299990654,1.2597864866256714
-1.4074729681015015,-0.0914572924375534,1.2445428371429443
-1.4077258110046387,-0.09098180383443832,1.229457974433899
-1.407976508140564,-0.0905146524310112,1.2145289182662964
-1.4082244634628296,-0.09005563706159592,1.199751615524292
-1.4084699153900146,-0.08960460871458054,1.185123085975647
-1.4087127447128296,-0.08916140347719193,1.1706395149230957
-1.4089531898498535,-0.08872588723897934,1.156298041343689
-1.409191608428955,-0.08829792588949203,1.1420955657958984
-1.4094276428222656,-0.08787737041711807,1.1280289888381958
-1.4096614122390747,-0.08746407181024551,1.1140952110290527
-1.4098927974700928,-0.08705789595842361,1.100291132926941
-1.4101221561431885,-0.08665871620178223,1.0866142511367798
-1.4103494882583618,-0.08626643568277359,1.0730618238449097
-1.4105751514434814,-0.08588092029094696,1.0596312284469604
-1.4107986688613892,-0.085502028465271,1.046319603919983
-1.4110198020935059,-0.08512964099645615,1.0331240892410278
-1.4112393856048584,-0.08476366847753525,1.0200427770614624
-1.4114567041397095,-0.08440397679805756,1.0070726871490479
-1.4116724729537964,-0.0840504989027977,0.9942119717597961
-1.4118863344192505,-0.08370309323072433,0.9814578890800476
-1.4120986461639404,-0.0833616852760315,0.9688084721565247
-1.4123092889785767,-0.08302617073059082,0.956261396408081
-1.4125179052352905,-0.08269643038511276,0.9438143372535706
-1.4127248525619507,-0.08237237483263016,0.9314650893211365
-1.4129306077957153,-0.08205395936965942,0.9192122220993042
-1.4131344556808472,-0.08174103498458862,0.9070529341697693
-1.4133367538452148,-0.08143354952335358,0.8949856758117676
-1.4135379791259766,-0.08113143593072891,0.883008599281311
-1.4137375354766846,-0.08083457499742508,0.871119499206543
-1.4139348268508911,-0.08054285496473312,0.8593162298202515
-1.4141316413879395,-0.08025629073381424,0.8475978374481201
-1.4143269062042236,-0.07997475564479828,0.8359621167182922
-1.4145208597183228,-0.07969817519187927,0.8244072794914246
-1.414712905883789,-0.07942645996809006,0.8129313588142395
-1.4149045944213867,-0.07915960252285004,0.8015335202217102
-1.4150936603546143,-0.07889743149280548,0.7902109026908875
-1.4152828454971313,-0.07864000648260117,0.7789632081985474
-1.4154702425003052,-0.07838717103004456,0.7677881121635437
-1.4156562089920044,-0.07813887298107147,0.7566840052604675
-1.4158416986465454,-0.07789509743452072,0.7456499934196472
-1.416025161743164,-0.07765571773052216,0.7346837520599365
-1.4162077903747559,-0.07742071896791458,0.7237843871116638
-1.4163897037506104,-0.07719005644321442,0.7129506468772888
-1.4165703058242798,-0.0769636482000351,0.7021807432174683
-1.4167498350143433,-0.07674143463373184,0.6914733648300171
-1.4169284105300903,-0.07652337849140167,0.6808273196220398
-1.417106032371521,-0.07630942761898041,0.6702412366867065
-1.417282223701477,-0.07609950751066208,0.6597135663032532
-1.4174580574035645,-0.07589361816644669,0.6492435336112976
-1.417632818222046,-0.07569167017936707,0.6388295888900757
-1.4178063869476318,-0.07549361884593964,0.6284703612327576
-1.4179792404174805,-0.07529943436384201,0.6181648969650269
-1.4181511402130127,-0.07510906457901001,0.6079118847846985
-1.418321967124939,-0.07492245733737946,0.597710132598877
-1.418492078781128,-0.07473959028720856,0.5875586867332458
-1.4186617136001587,-0.07456043362617493,0.5774563550949097
-1.418830394744873,-0.07438492029905319,0.5674018859863281
-1.4189980030059814,-0.07421299815177917,0.5573942065238953
-1.4191646575927734,-0.07404464483261108,0.5474322438240051
-1.4193311929702759,-0.07387986034154892,0.5375151634216309
-1.4194965362548828,-0.07371855527162552,0.5276416540145874
-1.4196617603302002,-0.07356074452400208,0.5178110003471375
-1.4198253154754639,-0.07340630888938904,0.5080215930938721
-1.4199888706207275,-0.07325532287359238,0.49827316403388977
-1.420151710510254,-0.07310768961906433,0.48856428265571594
-1.420313835144043,-0.07296339422464371,0.47889408469200134
-1.4204752445220947,-0.07282239198684692,0.46926164627075195
-1.4206360578536987,-0.07268467545509338,0.4596659541130066
-1.4207966327667236,-0.0725502148270607,0.45010626316070557
-1.4209562540054321,-0.07241896539926529,0.44058144092559814
-1.4211152791976929,-0.07229089736938477,0.4310905933380127
-1.421273946762085,-0.07216600328683853,0.4216329753398895
-1.421431541442871,-0.07204422354698181,0.4122075140476227
-1.4215893745422363,-0.071925587952137,0.4028136134147644
-1.421746015548706,-0.07181001454591751,0.3934500813484192
-1.4219022989273071,-0.07169751822948456,0.3841163218021393
-1.4220584630966187,-0.07158807665109634,0.37481147050857544
-1.4222139120101929,-0.07148164510726929,0.36553454399108887
-1.4223687648773193,-0.0713782086968422,0.35628482699394226
-1.4225236177444458,-0.07127776741981506,0.3470615744590759
-1.4226778745651245,-0.07118028402328491,0.33786386251449585
-1.4228311777114868,-0.07108570635318756,0.3286908268928528
-1.42298424243927,-0.0709940567612648,0.3195418119430542
-1.4231376647949219,-0.07090535014867783,0.31041616201400757
-1.4232901334762573,-0.07081949710845947,0.3013128340244293
-1.4234424829483032,-0.07073651999235153,0.2922312319278717
-1.4235939979553223,-0.07065638154745102,0.2831704616546631
-1.4237457513809204,-0.07057909667491913,0.2741299569606781
-1.4238964319229126,-0.07050459831953049,0.26510873436927795
-1.424047589302063,-0.07043294608592987,0.25610631704330444
-1.424198031425476,-0.07036406546831131,0.24712181091308594
-1.4243484735488892,-0.070297971367836,0.23815453052520752
-1.424498200416565,-0.07023463398218155,0.2292037010192871
-1.4246478080749512,-0.07017404586076736,0.22026866674423218
-1.4247971773147583,-0.07011620700359344,0.21134869754314423
-1.4249464273452759,-0.0700611025094986,0.20244310796260834
-1.425095558166504,-0.07000872492790222,0.1935511827468872
-1.4252439737319946,-0.06995902955532074,0.18467214703559875
-1.4253926277160645,-0.06991206109523773,0.17580541968345642
-1.4255412817001343,-0.06986778974533081,0.1669502705335617
-1.4256892204284668,-0.06982617825269699,0.15810595452785492
-1.4258372783660889,-0.06978726387023926,0.1492718756198883
-1.4259847402572632,-0.06975097954273224,0.1404472440481186
-1.4261329174041748,-0.0697174146771431,0.131631538271904
-1.4262807369232178,-0.06968647986650467,0.12282395362854004
-1.4264274835586548,-0.06965816020965576,0.11402378231287003
-1.426574945449829,-0.06963251531124115,0.10523048788309097
-1.4267221689224243,-0.06960950791835785,0.09644333273172379
-1.42686927318573,-0.06958912312984467,0.08766163885593414
-1.427016258239746,-0.06957137584686279,0.07888476550579071
-1.427163004875183,-0.06955625116825104,0.07011201977729797
-1.4273099899291992,-0.0695437639951706,0.06134277582168579
-1.4274566173553467,-0.06953387707471848,0.05257634073495865
-1.4276032447814941,-0.06952661275863647,0.043812066316604614
-1.4277503490447998,-0.06952199339866638,0.035049304366111755
-1.4278969764709473,-0.06951997429132462,0.026287367567420006
-1.4280438423156738,-0.06952058523893356,0.01752561517059803
-1.4281905889511108,-0.06952379643917084,0.00876337755471468
-1.4283372163772583,-0.06952963024377823,2.623726376371966e-16
-1.4284839630126953,-0.06953807920217514,-0.008765177801251411
-1.4286309480667114,-0.06954916566610336,-0.017532819882035255
-1.4287775754928589,-0.06956284493207932,-0.026303578168153763
-1.428924560546875,-0.06957917660474777,-0.035078130662441254
-1.4290716648101807,-0.06959813088178635,-0.04385713115334511
-1.4292186498641968,-0.06961971521377563,-0.05264124274253845
-1.429365634918213,-0.06964392215013504,-0.06143112853169441
-1.4295130968093872,-0.06967078894376755,-0.0702274739742279
-1.4296605587005615,-0.06970030069351196,-0.07903094589710236
-1.4298080205917358,-0.06973244994878769,-0.0878421887755394
-1.4299557209014893,-0.06976726651191711,-0.09666191041469574
-1.4301037788391113,-0.06980475783348083,-0.1054907888174057
-1.4302517175674438,-0.06984490901231766,-0.11432947218418121
-1.4303996562957764,-0.06988772749900818,-0.12317865341901779
-1.430547833442688,-0.06993323564529419,-0.13203902542591095
-1.4306966066360474,-0.06998145580291748,-0.1409113109111786
-1.4308454990386963,-0.07003238052129745,-0.14979617297649384
-1.4309942722320557,-0.07008600980043411,-0.1586942821741104
-1.4311437606811523,-0.07014237344264984,-0.1676063984632492
-1.4312926530838013,-0.07020144164562225,-0.17653311789035797
-1.4314427375793457,-0.07026329636573792,-0.18547531962394714
-1.4315928220748901,-0.07032790780067444,-0.19443361461162567
-1.431742787361145,-0.07039526104927063,-0.20340867340564728
-1.431893229484558,-0.07046541571617126,-0.21240130066871643
-1.432044506072998,-0.07053838670253754,-0.2214122861623764
-1.4321950674057007,-0.07061412185430527,-0.23044215142726898
-1.4323465824127197,-0.07069271057844162,-0.23949183523654938
-1.432498574256897,-0.07077416032552719,-0.24856208264827728
-1.4326509237289429,-0.07085846364498138,-0.2576535940170288
-1.4328030347824097,-0.070945605635643,-0.2667669951915741
-1.4329562187194824,-0.07103568315505981,-0.2759033441543579
-1.4331094026565552,-0.07112865149974823,-0.2850631773471832
-1.4332631826400757,-0.07122455537319183,-0.29424741864204407
-1.4334170818328857,-0.07132338732481003,-0.30345672369003296
-1.4335719347000122,-0.07142522186040878,-0.3126921057701111
-1.3902192115783691,-0.16591916978359222,2.5258615016937256
-1.3907357454299927,-0.16415388882160187,2.4905014038085938
-1.3912638425827026,-0.16243445873260498,2.4559242725372314
-1.3917109966278076,-0.16074855625629425,2.421940565109253
-1.3921918869018555,-0.15910814702510834,2.3887276649475098
-1.3926982879638672,-0.1575106978416443,2.356243848800659
-1.3931316137313843,-0.15594379603862762,2.3242995738983154
-1.3935670852661133,-0.15441468358039856,2.293001174926758
-1.3940155506134033,-0.1529233157634735,2.2623441219329834
-1.3944048881530762,-0.1514606475830078,2.232191562652588
-1.3948249816894531,-0.15003539621829987,2.202669382095337
-1.3951858282089233,-0.14863677322864532,2.173616409301758
-1.3956044912338257,-0.14727629721164703,2.145198106765747
-1.3960031270980835,-0.14594462513923645,2.1172754764556885
-1.396333932876587,-0.14463593065738678,2.08976149559021
-1.3967288732528687,-0.14336302876472473,2.0628387928009033
-1.39704430103302,-0.14211027324199677,2.0362789630889893
-1.3973965644836426,-0.14088872075080872,2.0102391242980957
-1.3977173566818237,-0.13969066739082336,1.984606146812439
-1.3980836868286133,-0.13852302730083466,1.9594757556915283
-1.398381233215332,-0.13737371563911438,1.9346743822097778
-1.3987244367599487,-0.13625334203243256,1.9103493690490723
-1.3990180492401123,-0.13515187799930573,1.8863575458526611
-1.3993005752563477,-0.13407248258590698,1.8627409934997559
-1.3996070623397827,-0.13301785290241241,1.8395353555679321
-1.3998839855194092,-0.13198226690292358,1.8166587352752686
-1.4001768827438354,-0.13096949458122253,1.7941608428955078
-1.4004383087158203,-0.12997448444366455,1.771970510482788
-1.4007083177566528,-0.1290004402399063,1.7501296997070312
-1.4009429216384888,-0.1280428171157837,1.7285741567611694
-1.4012056589126587,-0.1271069198846817,1.707374095916748
-1.4014503955841064,-0.12618803977966309,1.686463713645935
-1.4017112255096436,-0.12528878450393677,1.665876030921936
-1.401937484741211,-0.12440415471792221,1.6455426216125488
-1.4021371603012085,-0.12353450059890747,1.6254667043685913
-1.402385950088501,-0.12268603593111038,1.6057279109954834
-1.4025781154632568,-0.12184907495975494,1.5861974954605103
-1.4027972221374512,-0.1210305392742157,1.5669641494750977
-1.403011441230774,-0.12022725492715836,1.5479846000671387
-1.4031907320022583,-0.11943629384040833,1.5292195081710815
-1.4033911228179932,-0.11866209656000137,1.510724425315857
-1.403567910194397,-0.11790050566196442,1.4924442768096924
-1.4037600755691528,-0.11715448647737503,1.4744153022766113
-1.4039380550384521,-0.11642123758792877,1.4566001892089844
-1.4041070938110352,-0.1157008707523346,1.4389989376068115
-1.4042729139328003,-0.11499357968568802,1.4216125011444092
-1.4045501947402954,-0.11430839449167252,1.4045501947402954
-1.4048330783843994,-0.11363629996776581,1.3876981735229492
-1.4051127433776855,-0.11297629773616791,1.3710424900054932
-1.405388355255127,-0.11232804507017136,1.3545777797698975
-1.4056614637374878,-0.1116914302110672,1.3383009433746338
-1.4059317111968994,-0.11106616258621216,1.3222072124481201
-1.4061989784240723,-0.11045198887586594,1.3062920570373535
-1.4064629077911377,-0.10984866321086884,1.290550947189331
-1.406724214553833,-0.10925599932670593,1.2749805450439453
-1.406982660293579,-0.10867375135421753,1.2595765590667725
-1.4072383642196655,-0.1081017255783081,1.2443352937698364
-1.4074910879135132,-0.10753969848155975,1.2292529344558716
-1.4077417850494385,-0.10698753595352173,1.2143263816833496
-1.407989740371704,-0.10644498467445374,1.1995517015457153
-1.40823495388031,-0.10591186583042145,1.1849253177642822
-1.4084779024124146,-0.10538800805807114,1.170444369316101
-1.4087183475494385,-0.10487323254346848,1.1561052799224854
-1.408956527709961,-0.10436738282442093,1.1419050693511963
-1.409192681312561,-0.10387028753757477,1.1278408765792847
-1.4094263315200806,-0.10338176786899567,1.113909363746643
-1.4096578359603882,-0.10290168225765228,1.1001077890396118
-1.4098869562149048,-0.10242985188961029,1.0864330530166626
-1.4101142883300781,-0.10196617245674133,1.072882890701294
-1.4103398323059082,-0.10151048749685287,1.0594544410705566
-1.410563349723816,-0.10106265544891357,1.0461450815200806
-1.4107846021652222,-0.1006224974989891,1.0329519510269165
-1.4110040664672852,-0.1001899242401123,1.0198726654052734
-1.4112213850021362,-0.09976477921009064,1.0069048404693604
-1.4114370346069336,-0.09934695810079575,0.9940460920333862
-1.4116508960723877,-0.09893632680177689,0.9812941551208496
-1.4118632078170776,-0.0985327884554863,0.9686469435691833
-1.4120736122131348,-0.09813620150089264,0.9561018943786621
-1.4122823476791382,-0.09774645417928696,0.943656861782074
-1.4124890565872192,-0.0973634198307991,0.9313096404075623
-1.4126949310302734,-0.09698706120252609,0.9190588593482971
-1.4128986597061157,-0.0966171845793724,0.9069015979766846
-1.413101077079773,-0.09625375270843506,0.89483642578125
-1.4133020639419556,-0.0958966389298439,0.8828612565994263
-1.4135013818740845,-0.09554573893547058,0.8709740042686462
-1.4136989116668701,-0.09520094841718674,0.8591728210449219
-1.4138954877853394,-0.09486222267150879,0.8474563956260681
-1.414090871810913,-0.09452945739030838,0.8358226418495178
-1.4142847061157227,-0.09420254081487656,0.824269711971283
-1.4144768714904785,-0.09388137608766556,0.8127957582473755
-1.4146685600280762,-0.09356596320867538,0.801399827003479
-1.4148573875427246,-0.09325605630874634,0.7900789380073547
-1.4150463342666626,-0.09295177459716797,0.7788330912590027
-1.4152339696884155,-0.09265293926000595,0.7676599621772766
-1.4154198169708252,-0.09235944598913193,0.7565576434135437
-1.4156051874160767,-0.09207130968570709,0.7455254793167114
-1.4157886505126953,-0.09178835898637772,0.734561026096344
-1.4159716367721558,-0.09151061624288559,0.7236636877059937
-1.4161531925201416,-0.09123795479536057,0.7128316164016724
