-1.4170442819595337,-0.2991431951522827,0.6385643482208252
-1.41721773147583,-0.2983604371547699,0.6282094120979309
-1.4173904657363892,-0.29759299755096436,0.6179081797599792
-1.4175620079040527,-0.2968405783176422,0.6076593399047852
-1.4177329540252686,-0.2961031198501587,0.5974619388580322
-1.4179027080535889,-0.2953803539276123,0.5873145461082458
-1.41807222366333,-0.29467228055000305,0.577216386795044
-1.4182406663894653,-0.29397860169410706,0.5671660900115967
-1.4184080362319946,-0.2932991087436676,0.5571624636650085
-1.4185748100280762,-0.2926338016986847,0.5472046732902527
-1.4187411069869995,-0.291982501745224,0.5372917056083679
-1.418906331062317,-0.2913449704647064,0.5274222493171692
-1.4190714359283447,-0.2907212972640991,0.5175957083702087
-1.4192349910736084,-0.2901109755039215,0.5078104138374329
-1.4193984270095825,-0.2895142436027527,0.4980659484863281
-1.4195607900619507,-0.2889307141304016,0.4883610010147095
-1.4197231531143188,-0.28836047649383545,0.4786949157714844
-1.4198840856552124,-0.28780317306518555,0.4690663516521454
-1.4200447797775269,-0.2872588634490967,0.4594746530056
-1.4202052354812622,-0.2867274582386017,0.4499189257621765
-1.4203647375106812,-0.28620871901512146,0.44039803743362427
-1.4205235242843628,-0.28570252656936646,0.4309110939502716
-1.4206820726394653,-0.28520891070365906,0.4214574098587036
-1.420839786529541,-0.28472769260406494,0.41203591227531433
-1.420997142791748,-0.28425875306129456,0.4026458263397217
-1.4211537837982178,-0.28380200266838074,0.39328622817993164
-1.4213100671768188,-0.2833574116230011,0.38395631313323975
-1.42146635055542,-0.28292492032051086,0.3746553957462311
-1.421621561050415,-0.28250426054000854,0.3653823137283325
-1.4217761754989624,-0.28209543228149414,0.35613641142845154
-1.4219305515289307,-0.28169840574264526,0.34691691398620605
-1.422084927558899,-0.2813131511211395,0.337723046541214
-1.4222381114959717,-0.28093937039375305,0.32855382561683655
-1.4223912954330444,-0.2805771827697754,0.319408655166626
-1.4225444793701172,-0.28022655844688416,0.3102867603302002
-1.422696828842163,-0.27988725900650024,0.3011872172355652
-1.4228489398956299,-0.27955931425094604,0.2921093702316284
-1.4230005741119385,-0.279242604970932,0.2830524146556854
-1.423151969909668,-0.27893713116645813,0.2740156352519989
-1.4233026504516602,-0.2786426842212677,0.2649981677532196
-1.423453688621521,-0.2783595025539398,0.25599953532218933
-1.4236044883728027,-0.2780873477458954,0.24701879918575287
-1.423754334449768,-0.27782607078552246,0.23805519938468933
-1.4239039421081543,-0.27757570147514343,0.22910809516906738
-1.4240535497665405,-0.2773362994194031,0.2201767861843109
-1.4242031574249268,-0.27710774540901184,0.2112605720758438
-1.4243519306182861,-0.2768898904323578,0.2023586481809616
-1.4245009422302246,-0.27668288350105286,0.19347041845321655
-1.4246495962142944,-0.2764865458011627,0.18459512293338776
-1.4247980117797852,-0.2763008773326874,0.1757320761680603
-1.4249464273452759,-0.27612587809562683,0.16688060760498047
-1.425094485282898,-0.2759614586830139,0.15804000198841095
-1.4252424240112305,-0.27580761909484863,0.14920958876609802
-1.4253900051116943,-0.2756642997264862,0.14038866758346558
-1.4255379438400269,-0.2755315899848938,0.13157661259174347
-1.4256852865219116,-0.2754092812538147,0.12277267128229141
-1.4258323907852173,-0.2752974033355713,0.11397621035575867
-1.425979733467102,-0.2751960754394531,0.1051865890622139
-1.4261267185211182,-0.2751050889492035,0.0964030772447586
-1.4262738227844238,-0.27502456307411194,0.08762505650520325
-1.42642080783844,-0.2749544680118561,0.0788518488407135
-1.4265674352645874,-0.2748946249485016,0.07008276134729385
-1.426714539527893,-0.27484533190727234,0.061317186802625656
-1.4268609285354614,-0.2748062014579773,0.05255439877510071
-1.4270074367523193,-0.27477750182151794,0.043793778866529465
-1.427154541015625,-0.2747592628002167,0.035034678876399994
-1.427301287651062,-0.27475130558013916,0.026276400312781334
-1.4274476766586304,-0.2747536301612854,0.01751829870045185
-1.427594542503357,-0.27476638555526733,0.008759720250964165
-1.4277411699295044,-0.274789422750473,2.622631321589844e-16
-1.4278877973556519,-0.27482280135154724,-0.008761519566178322
-1.4280344247817993,-0.2748665511608124,-0.017525499686598778
-1.4281811714172363,-0.27492067217826843,-0.026292599737644196
-1.4283281564712524,-0.2749851942062378,-0.035063486546278
-1.428475260734558,-0.27506014704704285,-0.043838828802108765
-1.4286221265792847,-0.27514541149139404,-0.052619270980358124
-1.4287692308425903,-0.2752411365509033,-0.0614054910838604
-1.428916335105896,-0.2753472626209259,-0.07019815593957901
-1.4290639162063599,-0.27546393871307373,-0.07899796217679977
-1.4292112588882446,-0.2755909860134125,-0.08780553191900253
-1.4293588399887085,-0.27572858333587646,-0.0966215655207634
-1.4295068979263306,-0.2758767604827881,-0.10544676333665848
-1.4296543598175049,-0.2760353684425354,-0.11428172886371613
-1.4298025369644165,-0.2762046158313751,-0.12312722951173782
-1.4299505949020386,-0.27638447284698486,-0.1319839060306549
-1.4300994873046875,-0.27657508850097656,-0.14085249602794647
-1.4302483797073364,-0.27677637338638306,-0.14973366260528564
-1.4303970336914062,-0.27698829770088196,-0.15862804651260376
-1.430546522140503,-0.27721107006073,-0.16753645241260529
-1.4306952953338623,-0.2774445116519928,-0.1764594316482544
-1.4308454990386963,-0.27768900990486145,-0.1853979378938675
-1.4309954643249512,-0.27794429659843445,-0.19435247778892517
-1.4311456680297852,-0.2782105803489685,-0.2033238261938095
-1.4312957525253296,-0.2784877419471741,-0.21231266856193542
-1.4314470291137695,-0.2787761986255646,-0.22131991386413574
-1.4315978288650513,-0.279075562953949,-0.23034605383872986
-1.4317492246627808,-0.27938616275787354,-0.2393919676542282
-1.4319008588790894,-0.27970796823501587,-0.2484583705663681
-1.4320528507232666,-0.2800410985946655,-0.2575460374355316
-1.4322055578231812,-0.2803856432437897,-0.2666557729244232
-1.4323586225509644,-0.2807416021823883,-0.2757883071899414
-1.4325119256973267,-0.2811090648174286,-0.2849443554878235
-1.4326655864715576,-0.2814880609512329,-0.2941247224807739
-1.4328194856643677,-0.28187867999076843,-0.3033302128314972
-1.4329744577407837,-0.28228116035461426,-0.3125617802143097
-2.4838459491729736,-0.48995697498321533,-0.5577662587165833
-1.3959367275238037,-0.49757304787635803,2.0346646308898926
-1.396288275718689,-0.4932958781719208,2.0086448192596436
-1.396608829498291,-0.4891011118888855,1.9830322265625
-1.3969745635986328,-0.4850127398967743,1.9579212665557861
-1.3972716331481934,-0.48098859190940857,1.9331393241882324
-1.3976130485534668,-0.4770652651786804,1.9088314771652222
-1.3979060649871826,-0.47320857644081116,1.8848581314086914
-1.3981878757476807,-0.469429075717926,1.8612598180770874
-1.3984938859939575,-0.465736448764801,1.8380722999572754
-1.3987698554992676,-0.46211034059524536,1.8152130842208862
-1.399062156677246,-0.4585641324520111,1.7927324771881104
-1.399322748184204,-0.4550800919532776,1.7705590724945068
-1.3995921611785889,-0.4516695737838745,1.7487350702285767
-1.3998243808746338,-0.44831591844558716,1.72719407081604
-1.4000848531723022,-0.44503840804100037,1.7060083150863647
-1.4003267288208008,-0.44182029366493225,1.6851115226745605
-1.4005852937698364,-0.4386711120605469,1.6645379066467285
-1.400809407234192,-0.43557319045066833,1.6442186832427979
-1.4010071754455566,-0.43252772092819214,1.6241567134857178
-1.4012541770935059,-0.4295565187931061,1.6044319868087769
-1.4014456272125244,-0.42662596702575684,1.5849168300628662
-1.401664137840271,-0.42375990748405457,1.565698504447937
-1.401877522468567,-0.42094722390174866,1.5467334985733032
-1.4020558595657349,-0.41817760467529297,1.5279827117919922
-1.4022557735443115,-0.415466845035553,1.5095021724700928
-1.4024322032928467,-0.41280025243759155,1.491236686706543
-1.4026234149932861,-0.41018804907798767,1.4732215404510498
-1.4028009176254272,-0.4076206088066101,1.4554202556610107
-1.4029690027236938,-0.40509822964668274,1.4378327131271362
-1.403168797492981,-0.40263161063194275,1.420494794845581
-1.403427004814148,-0.4002271294593811,1.403427004814148
-1.4037094116210938,-0.3978738486766815,1.3865880966186523
-1.4039883613586426,-0.3955628275871277,1.3699452877044678
-1.4042636156082153,-0.3932931125164032,1.3534936904907227
-1.4045361280441284,-0.39106401801109314,1.3372294902801514
-1.4048056602478027,-0.3888746500015259,1.321148157119751
-1.405072569847107,-0.38672423362731934,1.3052456378936768
-1.4053356647491455,-0.3846116364002228,1.2895166873931885
-1.4055970907211304,-0.3825366199016571,1.2739590406417847
-1.4058549404144287,-0.38049790263175964,1.258566975593567
-1.4061100482940674,-0.3784949779510498,1.243337631225586
-1.4063622951507568,-0.3765271008014679,1.2282670736312866
-1.4066126346588135,-0.3745937645435333,1.2133524417877197
-1.4068598747253418,-0.3726940155029297,1.1985890865325928
-1.4071048498153687,-0.3708273768424988,1.1839745044708252
-1.4073472023010254,-0.3689931333065033,1.1695047616958618
-1.4075872898101807,-0.36719071865081787,1.155177116394043
-1.4078251123428345,-0.36541950702667236,1.1409881114959717
-1.4080606698989868,-0.3636789619922638,1.1269348859786987
-1.4082939624786377,-0.3619684875011444,1.1130144596099854
-1.408524990081787,-0.36028745770454407,1.0992237329483032
-1.4087536334991455,-0.35863539576530457,1.0855597257614136
-1.4089806079864502,-0.3570118844509125,1.0720202922821045
-1.4092059135437012,-0.3554163873195648,1.0586026906967163
-1.4094288349151611,-0.35384827852249146,1.0453037023544312
-1.4096498489379883,-0.35230714082717896,1.032120943069458
-1.4098689556121826,-0.3507925570011139,1.0190521478652954
-1.410085678100586,-0.34930387139320374,1.0060944557189941
-1.4103012084960938,-0.3478409945964813,0.9932461977005005
-1.4105145931243896,-0.34640321135520935,0.9805043935775757
-1.410726547241211,-0.3449902832508087,0.9678671360015869
-1.4109368324279785,-0.34360170364379883,0.9553321599960327
-1.4111449718475342,-0.34223702549934387,0.9428969621658325
-1.4113514423370361,-0.3408958613872528,0.9305595755577087
-1.4115569591522217,-0.3395780920982361,0.9183185696601868
-1.4117604494094849,-0.3382830321788788,0.9061710238456726
-1.411962628364563,-0.33701053261756897,0.8941154479980469
-1.4121633768081665,-0.3357601761817932,0.882149875164032
-1.4123622179031372,-0.3345314860343933,0.8702720999717712
-1.4125596284866333,-0.33332428336143494,0.8584804534912109
-1.4127558469772339,-0.3321382701396942,0.8467732667922974
-1.4129506349563599,-0.3309730887413025,0.8351486921310425
-1.4131443500518799,-0.3298284709453583,0.8236050605773926
-1.4133362770080566,-0.32870396971702576,0.8121403455734253
-1.4135273694992065,-0.32759952545166016,0.8007534146308899
-1.413716197013855,-0.32651448249816895,0.7894416451454163
-1.4139049053192139,-0.3254490792751312,0.7782048583030701
-1.414091944694519,-0.32440268993377686,0.767040491104126
-1.4142775535583496,-0.32337507605552673,0.7559471130371094
-1.4144628047943115,-0.32236623764038086,0.7449237704277039
-1.4146461486816406,-0.3213755488395691,0.7339682579040527
-1.4148284196853638,-0.32040300965309143,0.72307950258255
-1.4150099754333496,-0.3194483518600464,0.712256133556366
-1.41519033908844,-0.31851133704185486,0.7014966607093811
-1.4153696298599243,-0.31759172677993774,0.6907997727394104
-1.4155478477478027,-0.31668928265571594,0.6801639795303345
-1.4157252311706543,-0.3158038556575775,0.6695882081985474
-1.4159011840820312,-0.3149350583553314,0.6590707302093506
-1.4160767793655396,-0.31408295035362244,0.6486108303070068
-1.4162510633468628,-0.3132471442222595,0.6382068991661072
-1.41642427444458,-0.31242749094963074,0.6278577446937561
-1.4165970087051392,-0.31162387132644653,0.6175622940063477
-1.4167686700820923,-0.3108360171318054,0.6073192954063416
-1.4169390201568604,-0.3100636899471283,0.597127377986908
-1.4171090126037598,-0.30930691957473755,0.5869857668876648
-1.4172781705856323,-0.3085654079914093,0.576893150806427
-1.4174466133117676,-0.307839035987854,0.5668485164642334
-1.4176137447357178,-0.3071274757385254,0.5568504333496094
-1.4177807569503784,-0.306430846452713,0.546898365020752
-1.4179468154907227,-0.3057488203048706,0.5369908809661865
-1.4181116819381714,-0.30508121848106384,0.5271269083023071
-1.4182767868041992,-0.3044281303882599,0.517305850982666
-1.4184402227401733,-0.30378901958465576,0.5075260400772095
-1.418603539466858,-0.30316415429115295,0.4977870285511017
-1.4187661409378052,-0.3025531768798828,0.48808762431144714
-1.4189281463623047,-0.3019559979438782,0.47842687368392944
-1.4190890789031982,-0.3013724386692047,0.4688037037849426
-1.4192497730255127,-0.30080246925354004,0.4592173993587494
-1.4194098711013794,-0.3002459704875946,0.44966697692871094
-1.4195696115493774,-0.29970282316207886,0.44015148282051086
-1.4197280406951904,-0.2991727292537689,0.43066978454589844
-1.419886589050293,-0.2986558675765991,0.42122143507003784
-1.4200440645217896,-0.2981519103050232,0.4118051528930664
-1.4202015399932861,-0.2976609170436859,0.40242040157318115
-1.4203579425811768,-0.2971825897693634,0.3930659890174866
-1.420514464378357,-0.2967170774936676,0.3837413787841797
-1.4206702709197998,-0.2962641417980194,0.3744455575942993
-1.4208253622055054,-0.2958236336708069,0.3651776909828186
-1.4209802150726318,-0.2953955829143524,0.35593700408935547
-1.421134352684021,-0.2949798107147217,0.34672263264656067
-1.4212887287139893,-0.2945764362812042,0.33753398060798645
-1.4214420318603516,-0.2941850423812866,0.3283698856830597
-1.4215947389602661,-0.29380571842193604,0.31922978162765503
-1.4217480421066284,-0.2934386134147644,0.3101130425930023
-1.4219001531600952,-0.2930832803249359,0.3010185956954956
-1.4220521450042725,-0.2927398681640625,0.29194581508636475
-1.422203779220581,-0.2924082279205322,0.28289392590522766
-1.4223552942276,-0.2920883893966675,0.27386221289634705
-1.4225056171417236,-0.291780024766922,0.26484978199005127
-1.4226568937301636,-0.2914835512638092,0.2558562159538269
-1.422807216644287,-0.2911985218524933,0.24688048660755157
-1.4229570627212524,-0.29092490673065186,0.23792189359664917
-1.4231065511703491,-0.2906627357006073,0.22897978127002716
-1.4232560396194458,-0.290412038564682,0.22005347907543182
-1.4234055280685425,-0.2901726961135864,0.21114227175712585
-1.423554539680481,-0.2899446487426758,0.20224535465240479
-1.4237034320831299,-0.2897278666496277,0.19336210191249847
-1.423851728439331,-0.2895222008228302,0.18449173867702484
-1.4240002632141113,-0.28932783007621765,0.17563368380069733
-1.424148678779602,-0.2891446053981781,0.16678719222545624
-1.4242963790893555,-0.2889723777770996,0.1579514890909195
-1.424444317817688,-0.2888113260269165,0.14912603795528412
-1.4245917797088623,-0.2886612117290497,0.14031004905700684
-1.4247394800186157,-0.28852221369743347,0.1315029114484787
-1.42488694190979,-0.28839418292045593,0.1227039322257042
-1.4250339269638062,-0.2882770299911499,0.11391238123178482
-1.425181269645691,-0.2881709039211273,0.10512768477201462
-1.425328254699707,-0.28807568550109863,0.09634910523891449
-1.4254752397537231,-0.28799134492874146,0.0875760018825531
-1.4256223440170288,-0.28791794180870056,0.07880770415067673
-1.425768494606018,-0.28785526752471924,0.07004351913928986
-1.4259155988693237,-0.28780362010002136,0.061282847076654434
-1.426061987876892,-0.28776270151138306,0.05252497270703316
-1.426208257675171,-0.2877326011657715,0.04376925528049469
-1.4263556003570557,-0.28771358728408813,0.03501506522297859
-1.4265021085739136,-0.2877052128314972,0.026261689141392708
-1.426648497581482,-0.2877076268196106,0.017508490011096
-1.4267951250076294,-0.2877209484577179,0.008754814974963665
-1.4269416332244873,-0.28774508833885193,2.6211625135197456e-16
-1.4270883798599243,-0.28778010606765747,-0.008756614290177822
-1.4272348880767822,-0.28782591223716736,-0.01751568727195263
-1.4273817539215088,-0.28788259625434875,-0.026277881115674973
-1.4275282621383667,-0.2879500985145569,-0.035043854266405106
-1.427675485610962,-0.2880285978317261,-0.0438142828643322
-1.427822232246399,-0.2881178855895996,-0.05258980765938759
-1.4279690980911255,-0.28821808099746704,-0.061371102929115295
-1.4281163215637207,-0.28832927346229553,-0.07015885412693024
-1.4282636642456055,-0.2884514033794403,-0.07895372062921524
-1.4284110069274902,-0.28858447074890137,-0.08775635808706284
-1.428558349609375,-0.2887285053730011,-0.09656745195388794
-1.428706407546997,-0.2888837158679962,-0.10538771748542786
-1.4288536310195923,-0.28904974460601807,-0.11421772092580795
-1.429001808166504,-0.2892270088195801,-0.12305828183889389
-1.429150104522705,-0.2894153892993927,-0.13191001117229462
-1.4292985200881958,-0.2896149456501007,-0.14077362418174744
-1.4294474124908447,-0.2898257076740265,-0.14964979887008667
-1.429596185684204,-0.29004764556884766,-0.15853923559188843
-1.4297453165054321,-0.29028087854385376,-0.16744261980056763
-1.429894208908081,-0.2905253767967224,-0.17636063694953918
-1.430044174194336,-0.2907813787460327,-0.18529410660266876
-1.4301940202713013,-0.29104870557785034,-0.1942436248064041
-1.4303442239761353,-0.291327565908432,-0.2032099813222885
-1.4304943084716797,-0.29161781072616577,-0.2121937870979309
-1.4306453466415405,-0.2919197976589203,-0.22119596600532532
-1.4307961463928223,-0.29223328828811646,-0.23021703958511353
-1.4309473037719727,-0.2925585210323334,-0.23925787210464478
-1.4310989379882812,-0.29289552569389343,-0.24831922352313995
-1.4312511682510376,-0.2932444214820862,-0.25740185379981995
-1.4314037561416626,-0.2936052083969116,-0.26650646328926086
-1.4315567016601562,-0.2939779460430145,-0.27563387155532837
-1.43170964717865,-0.2943626642227173,-0.284784734249115
-1.4318633079528809,-0.2947595715522766,-0.2939600348472595
-1.4320173263549805,-0.2951686382293701,-0.3031603991985321
-1.4321719408035278,-0.29559004306793213,-0.31238672137260437
-2.4170010089874268,-0.4995296597480774,-0.5427557229995728
-1.3985369205474854,-0.49920761585235596,1.9100933074951172
-1.3988295793533325,-0.4951716959476471,1.8861032724380493
-1.3991115093231201,-0.4912168085575104,1.8624894618988037
-1.399417519569397,-0.4873526692390442,1.839286208152771
-1.3996938467025757,-0.4835583567619324,1.816412091255188
-1.3999860286712646,-0.4798474609851837,1.7939163446426392
-1.4002469778060913,-0.47620177268981934,1.7717283964157104
-1.4005165100097656,-0.4726329445838928,1.7498900890350342
-1.4007489681243896,-0.4691236615180969,1.7283347845077515
-1.4010095596313477,-0.46569401025772095,1.7071350812911987
-1.4012516736984253,-0.4623265266418457,1.6862244606018066
-1.4015105962753296,-0.45903122425079346,1.6656376123428345
-1.401734709739685,-0.4557895064353943,1.6453046798706055
-1.4019325971603394,-0.45260268449783325,1.6252294778823853
-1.4021797180175781,-0.4494935870170593,1.6054917573928833
-1.4023711681365967,-0.44642698764801025,1.5859636068344116
-1.4025895595550537,-0.44342783093452454,1.5667322874069214
-1.4028033018112183,-0.4404846131801605,1.5477548837661743
-1.4029815196990967,-0.43758639693260193,1.5289915800094604
-1.403181791305542,-0.43474987149238586,1.5104990005493164
-1.4033581018447876,-0.43195945024490356,1.4922212362289429
-1.4035494327545166,-0.42922601103782654,1.474194049835205
-1.4037270545959473,-0.42653942108154297,1.4563812017440796
-1.4038954973220825,-0.4239000380039215,1.4387822151184082
-1.4040944576263428,-0.4213186204433441,1.4214318990707397
-1.4043524265289307,-0.4188024699687958,1.4043524265289307
-1.4046350717544556,-0.4163399636745453,1.3875025510787964
-1.404914379119873,-0.4139217436313629,1.3708488941192627
-1.405189871788025,-0.4115466773509979,1.3543864488601685
-1.4054622650146484,-0.409214049577713,1.3381112813949585
-1.4057321548461914,-0.4069231450557709,1.3220195770263672
-1.405998945236206,-0.4046728014945984,1.3061062097549438
-1.4062623977661133,-0.4024622142314911,1.2903670072555542
-1.4065240621566772,-0.4002908766269684,1.274799108505249
-1.4067816734313965,-0.3981574475765228,1.2593965530395508
-1.407037377357483,-0.3960616886615753,1.2441575527191162
-1.4072896242141724,-0.39400243759155273,1.2290769815444946
-1.4075398445129395,-0.39197930693626404,1.214152216911316
-1.4077874422073364,-0.3899914026260376,1.199379324913025
-1.4080325365066528,-0.38803815841674805,1.1847550868988037
-1.4082748889923096,-0.38611873984336853,1.1702756881713867
-1.408515214920044,-0.38423267006874084,1.1559386253356934
-1.4087531566619873,-0.3823792636394501,1.1417402029037476
-1.4089889526367188,-0.38055795431137085,1.1276779174804688
-1.4092223644256592,-0.37876808643341064,1.1137481927871704
-1.409453272819519,-0.37700897455215454,1.0999481678009033
-1.4096823930740356,-0.3752802908420563,1.086275339126587
-1.4099093675613403,-0.3735814094543457,1.0727269649505615
-1.4101349115371704,-0.371911883354187,1.0593005418777466
-1.4103578329086304,-0.3702709674835205,1.0459927320480347
-1.410578966140747,-0.3686583340167999,1.0328013896942139
-1.410798192024231,-0.3670733869075775,1.019723892211914
-1.411015272140503,-0.36551570892333984,1.0067577362060547
-1.4112306833267212,-0.3639848530292511,0.9939008355140686
-1.4114443063735962,-0.36248037219047546,0.9811506271362305
-1.411656379699707,-0.3610018491744995,0.9685050845146179
-1.4118670225143433,-0.3595488667488098,0.9559620022773743
-1.4120750427246094,-0.35812076926231384,0.9435184001922607
-1.4122817516326904,-0.35671743750572205,0.9311730265617371
-1.412487268447876,-0.355338454246521,0.9189237952232361
-1.4126906394958496,-0.35398322343826294,0.9067680835723877
-1.4128930568695068,-0.3526516854763031,0.8947046399116516
-1.4130938053131104,-0.3513432741165161,0.8827311396598816
-1.4132931232452393,-0.3500576317310333,0.8708456754684448
-1.4134902954101562,-0.3487943112850189,0.8590460419654846
-1.4136865139007568,-0.34755322337150574,0.8473311066627502
-1.413881540298462,-0.34633398056030273,0.8356989026069641
-1.414075255393982,-0.34513622522354126,0.8241475820541382
-1.4142674207687378,-0.3439595699310303,0.812675416469574
-1.4144588708877563,-0.3428038954734802,0.8012810349464417
-1.4146475791931152,-0.3416684567928314,0.7899618148803711
-1.4148366451263428,-0.3405536413192749,0.7787176370620728
-1.415023684501648,-0.3394586741924286,0.7675458788871765
-1.4152095317840576,-0.33838340640068054,0.7564452290534973
-1.4153947830200195,-0.3373277187347412,0.745414674282074
-1.415578007698059,-0.33629101514816284,0.7344517707824707
-1.4157606363296509,-0.3352733254432678,0.723555862903595
-1.4159421920776367,-0.33427438139915466,0.7127254009246826
-1.4161226749420166,-0.3332938849925995,0.7019588351249695
-1.41630220413208,-0.3323315978050232,0.6912549138069153
-1.4164804220199585,-0.3313872516155243,0.6806120872497559
-1.4166580438613892,-0.33046072721481323,0.67002934217453
-1.4168341159820557,-0.3295516073703766,0.6595049500465393
-1.4170095920562744,-0.32865992188453674,0.6490381360054016
-1.4171842336654663,-0.3277854025363922,0.6386274099349976
-1.4173574447631836,-0.32692763209342957,0.6282713413238525
-1.4175300598144531,-0.32608669996261597,0.6179690957069397
-1.4177018404006958,-0.32526227831840515,0.6077193021774292
-1.4178725481033325,-0.3244541585445404,0.5975207686424255
-1.418042540550232,-0.3236622214317322,0.5873724222183228
-1.4182119369506836,-0.3228863477706909,0.5772732496261597
-1.4183802604675293,-0.32212620973587036,0.5672219395637512
-1.4185476303100586,-0.32138165831565857,0.5572172999382019
-1.4187146425247192,-0.32065266370773315,0.5472586154937744
-1.418880820274353,-0.319938987493515,0.5373446345329285
-1.4190459251403809,-0.31924042105674744,0.5274741649627686
-1.4192110300064087,-0.3185570240020752,0.5176466107368469
-1.4193745851516724,-0.3178882598876953,0.5078603029251099
-1.419538140296936,-0.3172343969345093,0.4981149733066559
-1.4197006225585938,-0.31659501791000366,0.4884091317653656
-1.4198626279830933,-0.3159700930118561,0.47874197363853455
-1.420023798942566,-0.3153594732284546,0.46911248564720154
-1.4201844930648804,-0.31476306915283203,0.4595198631286621
-1.4203448295593262,-0.31418076157569885,0.44996315240859985
-1.4205044507980347,-0.31361234188079834,0.4404413402080536
-1.4206632375717163,-0.31305772066116333,0.4309534728527069
-1.4208217859268188,-0.31251683831214905,0.4214988648891449
-1.4209792613983154,-0.311989426612854,0.41207635402679443
-1.4211368560791016,-0.3114756941795349,0.4026854336261749
-1.4212936162948608,-0.31097519397735596,0.39332491159439087
-1.4214500188827515,-0.3104880750179291,0.38399413228034973
-1.4216059446334839,-0.3100140690803528,0.3746921718120575
-1.4217612743377686,-0.3095531761646271,0.3654182255268097
-1.421915888786316,-0.30910518765449524,0.3561713695526123
-1.4220705032348633,-0.30867019295692444,0.34695103764533997
-1.422224760055542,-0.30824801325798035,0.3377562463283539
-1.4223779439926147,-0.30783846974372864,0.3285861313343048
-1.422531008720398,-0.3074415922164917,0.3194400370121002
-1.4226844310760498,-0.3070574402809143,0.3103173077106476
-1.4228367805480957,-0.3066856265068054,0.30121684074401855
-1.4229888916015625,-0.3063262701034546,0.29213809967041016
-1.423140525817871,-0.3059792220592499,0.28308025002479553
-1.4232919216156006,-0.30564451217651367,0.2740425765514374
-1.4234426021575928,-0.30532190203666687,0.26502424478530884
-1.4235938787460327,-0.3050116300582886,0.25602471828460693
-1.4237443208694458,-0.30471333861351013,0.24704307317733765
-1.4238944053649902,-0.3044270873069763,0.23807860910892487
-1.4240437746047974,-0.3041526973247528,0.2291305810213089
-1.4241933822631836,-0.3038903474807739,0.22019840776920319
-1.4243429899215698,-0.3036399483680725,0.21128131449222565
-1.4244922399520874,-0.30340132117271423,0.20237857103347778
-1.4246410131454468,-0.3031744360923767,0.1934894472360611
-1.4247894287109375,-0.30295923352241516,0.18461324274539948
-1.4249383211135864,-0.3027558922767639,0.17574937641620636
-1.4250866174697876,-0.3025641441345215,0.16689704358577728
-1.4252344369888306,-0.3023839294910431,0.15805552899837494
-1.425382375717163,-0.3022153675556183,0.14922425150871277
-1.425529956817627,-0.30205827951431274,0.1404024362564087
-1.4256778955459595,-0.3019128739833832,0.13158953189849854
-1.4258254766464233,-0.3017788827419281,0.12278474867343903
-1.42597234249115,-0.3016562759876251,0.11398740112781525
-1.4261198043823242,-0.30154523253440857,0.10519692301750183
-1.4262670278549194,-0.3014456033706665,0.09641256183385849
-1.4264140129089355,-0.30135732889175415,0.08763367682695389
-1.4265609979629517,-0.30128049850463867,0.0788595974445343
-1.42670738697052,-0.30121490359306335,0.07008963823318481
-1.4268546104431152,-0.30116087198257446,0.06132320687174797
-1.4270013570785522,-0.3011181056499481,0.05255957320332527
-1.4271477460861206,-0.3010866343975067,0.04379808530211449
-1.4272949695587158,-0.30106666684150696,0.03503812476992607
-1.4274414777755737,-0.301057904958725,0.026278983801603317
-1.4275879859924316,-0.3010604679584503,0.01752001978456974
-1.4277349710464478,-0.30107441544532776,0.008760581724345684
-1.4278813600540161,-0.30109962821006775,2.6228888725453683e-16
-1.4280282258987427,-0.3011362850666046,-0.008762381970882416
-1.4281748533248901,-0.30118420720100403,-0.017527222633361816
-1.4283217191696167,-0.30124354362487793,-0.026295186951756477
-1.4284685850143433,-0.30131423473358154,-0.035066936165094376
-1.428615689277649,-0.30139634013175964,-0.043843138962984085
-1.428762674331665,-0.30148977041244507,-0.05262444540858269
-1.428909420967102,-0.3015945851802826,-0.06141151860356331
-1.4290568828582764,-0.30171093344688416,-0.07020506262779236
-1.4292042255401611,-0.3018387258052826,-0.07900571823120117
-1.429351568222046,-0.3019779324531555,-0.08781414479017258
-1.4294992685317993,-0.30212876200675964,-0.09663105756044388
-1.4296472072601318,-0.3022910952568054,-0.1054571196436882
-1.4297950267791748,-0.30246490240097046,-0.11429296433925629
-1.4299429655075073,-0.3026503622531891,-0.12313932180404663
-1.430091381072998,-0.3028475046157837,-0.13199689984321594
-1.4302400350570679,-0.3030563294887543,-0.14086635410785675
-1.4303886890411377,-0.30327680706977844,-0.14974835515022278
-1.4305377006530762,-0.30350908637046814,-0.15864364802837372
-1.4306869506835938,-0.30375316739082336,-0.1675529032945633
-1.4308359622955322,-0.30400896072387695,-0.17647677659988403
-1.4309860467910767,-0.30427685379981995,-0.18541614711284637
-1.4311360120773315,-0.30455660820007324,-0.1943715661764145
-1.431286334991455,-0.3048483729362488,-0.20334380865097046
-1.4314364194869995,-0.30515211820602417,-0.2123335301876068
-1.4315876960754395,-0.3054681420326233,-0.22134165465831757
-1.4317383766174316,-0.30579614639282227,-0.23036865890026093
-1.4318897724151611,-0.30613648891448975,-0.2394154667854309
-1.4320416450500488,-0.30648916959762573,-0.24848279356956482
-1.4321937561035156,-0.3068541884422302,-0.25757136940956116
-1.4323463439941406,-0.30723169445991516,-0.266681969165802
-1.4324995279312134,-0.3076217770576477,-0.2758154273033142
-1.4326527118682861,-0.3080243766307831,-0.28497233986854553
-1.4328064918518066,-0.308439701795578,-0.2941536605358124
-1.4329605102539062,-0.30886775255203247,-0.3033600449562073
-1.4331153631210327,-0.3093087375164032,-0.3125925064086914
-2.305421829223633,-0.49825453758239746,-0.5176997780799866
-1.3994007110595703,-0.4968002140522003,1.7706576585769653
-1.399669885635376,-0.49307695031166077,1.748832106590271
-1.399902105331421,-0.48941585421562195,1.7272899150848389
-1.4001625776290894,-0.4858378469944,1.706102967262268
-1.4004045724868774,-0.4823247492313385,1.6852052211761475
-1.400663137435913,-0.47888684272766113,1.66463041305542
-1.400887370109558,-0.47550496459007263,1.6443102359771729
-1.4010847806930542,-0.47218015789985657,1.624246597290039
-1.4013320207595825,-0.4689366817474365,1.6045211553573608
-1.401523232460022,-0.46573734283447266,1.5850045680999756
-1.401741623878479,-0.46260854601860046,1.5657850503921509
-1.401955008506775,-0.45953795313835144,1.5468189716339111
-1.4021332263946533,-0.4565144181251526,1.5280671119689941
-1.4023332595825195,-0.453555166721344,1.5095856189727783
-1.4025095701217651,-0.4506440758705139,1.491318941116333
-1.4027007818222046,-0.4477923512458801,1.4733026027679443
-1.4028781652450562,-0.44498950242996216,1.4555003643035889
-1.4030466079711914,-0.4422360062599182,1.437912106513977
-1.4032119512557983,-0.43953242897987366,1.4205384254455566
-1.4035029411315918,-0.43691781163215637,1.4035029411315918
-1.4037853479385376,-0.43434882164001465,1.3866631984710693
-1.4040642976760864,-0.4318259358406067,1.3700194358825684
-1.4043396711349487,-0.4293481707572937,1.3535670042037964
-1.4046118259429932,-0.42691460251808167,1.3373016119003296
-1.4048815965652466,-0.42452457547187805,1.321219563484192
-1.4051483869552612,-0.4221769869327545,1.3053160905838013
-1.405411720275879,-0.4198707640171051,1.2895863056182861
-1.4056726694107056,-0.41760537028312683,1.2740274667739868
-1.405930519104004,-0.4153797924518585,1.2586346864700317
-1.4061858654022217,-0.41319331526756287,1.243404746055603
-1.4064381122589111,-0.41104501485824585,1.2283333539962769
-1.4066882133483887,-0.4089343845844269,1.213417649269104
-1.406935691833496,-0.4068605303764343,1.1986536979675293
-1.4071804285049438,-0.4048227071762085,1.1840380430221558
-1.4074229001998901,-0.40282031893730164,1.169567584991455
-1.4076629877090454,-0.40085268020629883,1.155239224433899
-1.4079005718231201,-0.3989190459251404,1.1410493850708008
-1.408136248588562,-0.3970189392566681,1.1269954442977905
-1.408369541168213,-0.39515164494514465,1.1130741834640503
-1.4086004495620728,-0.39331650733947754,1.0992825031280518
-1.4088293313980103,-0.39151301980018616,1.085618019104004
-1.4090561866760254,-0.38974064588546753,1.072077751159668
-1.4092814922332764,-0.38799887895584106,1.0586594343185425
-1.4095045328140259,-0.38628703355789185,1.04535973072052
-1.409725308418274,-0.3846046030521393,1.0321762561798096
-1.4099442958831787,-0.38295111060142517,1.0191067457199097
-1.4101612567901611,-0.38132601976394653,1.006148338317871
-1.4103764295578003,-0.37972894310951233,0.9932991862297058
-1.4105901718139648,-0.37815940380096436,0.980556845664978
-1.410801887512207,-0.376616895198822,0.9679188132286072
-1.4110124111175537,-0.37510108947753906,0.9553833603858948
-1.4112205505371094,-0.3736112713813782,0.9429474472999573
-1.4114269018173218,-0.3721471428871155,0.9306093454360962
-1.4116324186325073,-0.37070855498313904,0.9183676242828369
-1.4118356704711914,-0.3692947328090668,0.9062193036079407
-1.41203773021698,-0.36790552735328674,0.8941630125045776
-1.412238597869873,-0.3665405809879303,0.8821969032287598
-1.4124376773834229,-0.36519932746887207,0.8703185319900513
-1.4126349687576294,-0.363881379365921,0.8585261702537537
-1.4128308296203613,-0.3625865578651428,0.846818208694458
-1.413025975227356,-0.36131465435028076,0.8351931571960449
-1.4132193326950073,-0.3600650131702423,0.8236488103866577
-1.4134114980697632,-0.3588374853134155,0.8121835589408875
-1.413602590560913,-0.3576318025588989,0.8007959723472595
-1.4137914180755615,-0.3564472794532776,0.7894836664199829
-1.41398024559021,-0.3552842438220978,0.778246283531189
-1.4141674041748047,-0.3541419506072998,0.7670813798904419
-1.4143528938293457,-0.3530201017856598,0.7559873461723328
-1.4145379066467285,-0.35191869735717773,0.7449633479118347
-1.414721131324768,-0.35083720088005066,0.7340071797370911
-1.4149036407470703,-0.3497755229473114,0.7231179475784302
-1.4150850772857666,-0.3487333655357361,0.7122939825057983
-1.415265440940857,-0.34771043062210083,0.7015339732170105
-1.4154448509216309,-0.3467065095901489,0.690836489200592
-1.4156230688095093,-0.3457213342189789,0.6802000999450684
-1.4158003330230713,-0.3447546660900116,0.6696236729621887
-1.4159761667251587,-0.3438062369823456,0.6591055989265442
-1.416151762008667,-0.34287601709365845,0.6486452221870422
-1.4163261651992798,-0.34196361899375916,0.6382407546043396
-1.4164992570877075,-0.3410687744617462,0.627890944480896
-1.4166719913482666,-0.34019148349761963,0.6175950169563293
-1.4168436527252197,-0.33933141827583313,0.6073514223098755
-1.417014479637146,-0.3384883999824524,0.5971591472625732
-1.4171838760375977,-0.33766207098960876,0.587016761302948
-1.4173535108566284,-0.3368527293205261,0.5769238471984863
-1.4175218343734741,-0.33605971932411194,0.566878616809845
-1.4176889657974243,-0.33528292179107666,0.556879997253418
-1.4178556203842163,-0.3345223665237427,0.546927273273468
-1.4180219173431396,-0.33377787470817566,0.5370193123817444
-1.418186902999878,-0.33304908871650696,0.5271548628807068
-1.4183518886566162,-0.33233609795570374,0.5173332095146179
-1.4185152053833008,-0.3316383957862854,0.5075528621673584
-1.4186785221099854,-0.33095622062683105,0.49781334400177
-1.4188412427902222,-0.33028924465179443,0.4881134629249573
-1.419002890586853,-0.3296372592449188,0.4784521162509918
-1.4191640615463257,-0.32900023460388184,0.4688284993171692
-1.4193248748779297,-0.3283780515193939,0.45924171805381775
-1.419485092163086,-0.32777056097984314,0.4496907889842987
-1.4196445941925049,-0.3271775543689728,0.44017472863197327
-1.4198031425476074,-0.3265989124774933,0.430692583322525
-1.4199615716934204,-0.32603463530540466,0.42124369740486145
-1.4201191663742065,-0.3254844844341278,0.4118269085884094
-1.4202765226364136,-0.3249484598636627,0.4024416208267212
-1.4204330444335938,-0.3244263231754303,0.3930867612361908
-1.4205892086029053,-0.32391807436943054,0.38376161456108093
-1.4207452535629272,-0.3234236538410187,0.37446534633636475
-1.4209004640579224,-0.3229427635669708,0.36519697308540344
-1.4210550785064697,-0.3224754333496094,0.35595574975013733
-1.421209692955017,-0.3220216631889343,0.3467410206794739
-1.4213635921478271,-0.3215811848640442,0.3375517725944519
-1.4215167760849,-0.3211538791656494,0.32838717103004456
-1.421669840812683,-0.32073986530303955,0.31924664974212646
-1.4218231439590454,-0.3203391134738922,0.31012943387031555
-1.421975016593933,-0.3199511468410492,0.30103442072868347
-1.422127366065979,-0.31957632303237915,0.2919612526893616
-1.422278881072998,-0.31921425461769104,0.2829088568687439
-1.422430157661438,-0.318865031003952,0.2738766670227051
-1.4225808382034302,-0.31852850317955017,0.2648637890815735
-1.422731876373291,-0.31820476055145264,0.25586968660354614
-1.4228824377059937,-0.3178936243057251,0.246893510222435
-1.423032283782959,-0.317594975233078,0.23793447017669678
-1.4231817722320557,-0.3173087537288666,0.22899188101291656
-1.4233310222625732,-0.3170350193977356,0.22006507217884064
-1.42348051071167,-0.31677377223968506,0.21115338802337646
-1.423629641532898,-0.31652477383613586,0.20225602388381958
-1.4237785339355469,-0.31628814339637756,0.19337230920791626
-1.4239269495010376,-0.31606367230415344,0.18450148403644562
-1.4240752458572388,-0.3158514201641083,0.1756429374217987
-1.4242238998413086,-0.31565144658088684,0.1667959988117218
-1.424371600151062,-0.31546342372894287,0.15795983374118805
-1.424519658088684,-0.31528761982917786,0.14913392066955566
-1.4246668815612793,-0.31512370705604553,0.14031744003295898
-1.4248147010803223,-0.3149719834327698,0.13150985538959503
-1.424962043762207,-0.3148321807384491,0.12271039932966232
-1.4251092672348022,-0.3147043287754059,0.11391840130090714
-1.425256371498108,-0.3145884573459625,0.10513322800397873
-1.4254032373428345,-0.31448444724082947,0.0963541716337204
-1.4255503416061401,-0.31439241766929626,0.0875806137919426
-1.4256974458694458,-0.31431227922439575,0.07881186157464981
-1.4258437156677246,-0.3142438530921936,0.07004720717668533
-1.4259907007217407,-0.31418749690055847,0.0612860806286335
-1.426137089729309,-0.3141428232192993,0.052527740597724915
-1.426283597946167,-0.31411001086235046,0.043771568685770035
-1.426430583000183,-0.3140891194343567,0.03501690551638603
-1.4265772104263306,-0.31408002972602844,0.026263071224093437
-1.4267237186431885,-0.31408271193504333,0.01750941388309002
-1.4268702268600464,-0.31409722566604614,0.0087552759796381
-1.4270168542861938,-0.31412360072135925,2.6213009504670625e-16
-1.4271637201309204,-0.31416183710098267,-0.008757076226174831
-1.4273101091384888,-0.31421181559562683,-0.0175166092813015
-1.4274568557739258,-0.3142736852169037,-0.02627926506102085
-1.4276037216186523,-0.31434744596481323,-0.03504570573568344
-1.4277507066726685,-0.31443309783935547,-0.043816592544317245
-1.427897572517395,-0.3145305812358856,-0.052592579275369644
-1.4280446767807007,-0.3146400451660156,-0.06137435510754585
-1.4281915426254272,-0.31476131081581116,-0.07016254961490631
-1.428338885307312,-0.3148946464061737,-0.07895787805318832
-1.4284862279891968,-0.31503990292549133,-0.08776098489761353
-1.4286339282989502,-0.315197229385376,-0.09657256305217743
-1.4287817478179932,-0.31536656618118286,-0.10539326816797256
-1.428929328918457,-0.315547913312912,-0.11422377079725266
-1.429077386856079,-0.3157414197921753,-0.123064786195755
-1.4292254447937012,-0.3159470558166504,-0.13191697001457214
-1.429374098777771,-0.31616491079330444,-0.14078105986118317
-1.4295228719711304,-0.31639498472213745,-0.1496577113866806
-1.4296715259552002,-0.316637247800827,-0.15854759514331818
-1.4298207759857178,-0.3168918788433075,-0.16745145618915558
-1.4299697875976562,-0.3171587884426117,-0.17636995017528534
-1.4301198720932007,-0.3174382746219635,-0.18530391156673431
-1.4302695989608765,-0.3177300989627838,-0.19425389170646667
-1.4304195642471313,-0.31803444027900696,-0.2032206803560257
-1.4305695295333862,-0.31835129857063293,-0.2122049480676651
-1.4307210445404053,-0.3186810612678528,-0.2212076634168625
-1.4308714866638184,-0.3190232515335083,-0.23022916913032532
-1.4310230016708374,-0.3193783462047577,-0.23927052319049835
-1.4311747550964355,-0.3197462558746338,-0.24833238124847412
-1.4313265085220337,-0.32012704014778137,-0.25741541385650635
-1.4314790964126587,-0.32052087783813477,-0.26652050018310547
-1.431632161140442,-0.32092782855033875,-0.27564841508865356
-1.4317854642868042,-0.3213478922843933,-0.28479981422424316
-1.4319391250610352,-0.3217811584472656,-0.2939755916595459
-1.4320929050445557,-0.32222771644592285,-0.3031764030456543
-1.4322474002838135,-0.32268771529197693,-0.31240320205688477
-1.4016900062561035,-0.4994644224643707,1.6658507585525513
-1.401914119720459,-0.49593713879585266,1.6455153226852417
-1.4021116495132446,-0.4924694895744324,1.6254370212554932
-1.402358889579773,-0.4890865683555603,1.6056969165802002
-1.402550220489502,-0.485749751329422,1.5861660242080688
-1.4027689695358276,-0.4824865758419037,1.5669326782226562
-1.4029825925827026,-0.47928404808044434,1.547952651977539
-1.4031610488891602,-0.4761306345462799,1.5291872024536133
-1.403361201286316,-0.473044216632843,1.5106922388076782
-1.4035375118255615,-0.470007985830307,1.4924119710922241
-1.4037288427352905,-0.4670337438583374,1.4743825197219849
-1.4039063453674316,-0.46411049365997314,1.4565672874450684
-1.4040744304656982,-0.46123844385147095,1.4389654397964478
-1.4042401313781738,-0.4584188163280487,1.421579360961914
-1.4045301675796509,-0.45569148659706116,1.4045301675796509
-1.4048126935958862,-0.45301204919815063,1.3876780271530151
-1.4050922393798828,-0.4503808915615082,1.3710224628448486
-1.4053676128387451,-0.4477965831756592,1.354557752609253
-1.4056401252746582,-0.4452585279941559,1.3382806777954102
-1.405909776687622,-0.4427657127380371,1.3221865892410278
-1.4061765670776367,-0.44031718373298645,1.3062711954116821
-1.406440258026123,-0.43791189789772034,1.2905302047729492
-1.4067014455795288,-0.43554922938346863,1.274959921836853
-1.4069592952728271,-0.43322792649269104,1.259555697441101
-1.4072149991989136,-0.43094754219055176,1.2443146705627441
-1.407467246055603,-0.4287068843841553,1.2292320728302002
-1.4077175855636597,-0.42650556564331055,1.2143055200576782
-1.4079651832580566,-0.4243426024913788,1.199530839920044
-1.4082101583480835,-0.4222172200679779,1.1849044561386108
-1.4084526300430298,-0.420128732919693,1.1704233884811401
-1.4086929559707642,-0.4180765748023987,1.156084418296814
-1.4089308977127075,-0.4160599112510681,1.1418843269348145
-1.4091665744781494,-0.41407811641693115,1.1278200149536133
-1.4094001054763794,-0.41213059425354004,1.1138886213302612
-1.4096311330795288,-0.4102165997028351,1.1000869274139404
-1.4098598957061768,-0.40833553671836853,1.0864121913909912
-1.4100871086120605,-0.40648704767227173,1.072862148284912
-1.4103126525878906,-0.40467050671577454,1.0594340562820435
-1.4105356931686401,-0.4028850495815277,1.0461245775222778
-1.4107565879821777,-0.4011302888393402,1.0329314470291138
-1.4109758138656616,-0.3994057774543762,1.0198522806167603
-1.411192774772644,-0.3977108299732208,1.0068843364715576
-1.4114083051681519,-0.39604514837265015,0.9940258264541626
-1.4116220474243164,-0.3944081664085388,0.9812741279602051
-1.4118342399597168,-0.392799437046051,0.9686270952224731
-1.4120445251464844,-0.3912184238433838,0.9560822248458862
-1.4122527837753296,-0.38966456055641174,0.9436371922492981
-1.412459135055542,-0.38813748955726624,0.9312899708747864
-1.4126651287078857,-0.3866371810436249,0.9190394878387451
-1.4128684997558594,-0.3851625919342041,0.9068822264671326
-1.4130706787109375,-0.3837136924266815,0.8948171138763428
-1.4132715463638306,-0.3822900354862213,0.8828421235084534
-1.4134708642959595,-0.38089117407798767,0.8709551692008972
-1.4136680364608765,-0.3795165717601776,0.8591540455818176
-1.413864254951477,-0.37816616892814636,0.8474376201629639
-1.4140592813491821,-0.3768395185470581,0.8358039855957031
-1.4142529964447021,-0.3755362629890442,0.8242512345314026
-1.414445161819458,-0.3742559254169464,0.8127775192260742
-1.4146366119384766,-0.3729984760284424,0.8013817667961121
-1.4148253202438354,-0.3717629909515381,0.7900609970092773
-1.415014386177063,-0.3705500066280365,0.778815507888794
-1.4152015447616577,-0.3693585991859436,0.7676423192024231
-1.4153872728347778,-0.3681885898113251,0.7565402388572693
-1.4155725240707397,-0.36703991889953613,0.7455082535743713
-1.4157557487487793,-0.3659118711948395,0.7345439791679382
-1.4159382581710815,-0.36480456590652466,0.7236467003822327
-1.416119933128357,-0.36371761560440063,0.7128148674964905
-1.4163001775741577,-0.36265069246292114,0.7020468711853027
-1.4164799451828003,-0.361603707075119,0.6913416981697083
-1.4166580438613892,-0.3605761229991913,0.6806974411010742
-1.4168356657028198,-0.3595680296421051,0.6701133847236633
-1.4170117378234863,-0.3585788309574127,0.6595876812934875
-1.4171873331069946,-0.3576086163520813,0.64911949634552
-1.417361855506897,-0.3566570281982422,0.6387074589729309
-1.4175351858139038,-0.3557237386703491,0.6283501386642456
-1.4177078008651733,-0.3548087179660797,0.6180465817451477
-1.417879581451416,-0.3539116680622101,0.6077955365180969
-1.4180502891540527,-0.3530323803424835,0.5975956916809082
-1.4182201623916626,-0.3521706461906433,0.5874460339546204
-1.4183896780014038,-0.35132643580436707,0.577345609664917
-1.4185582399368286,-0.35049939155578613,0.567293107509613
-1.4187253713607788,-0.34968921542167664,0.5572871565818787
-1.4188921451568604,-0.34889596700668335,0.5473271012306213
-1.4190586805343628,-0.3481195271015167,0.5374119877815247
-1.4192239046096802,-0.34735941886901855,0.5275403261184692
-1.4193888902664185,-0.3466157615184784,0.5177114605903625
-1.4195523262023926,-0.34588807821273804,0.50792396068573
-1.4197160005569458,-0.34517666697502136,0.4981774091720581
-1.419878363609314,-0.3444809019565582,0.4884702265262604
-1.420040488243103,-0.34380099177360535,0.4788019359111786
-1.4202017784118652,-0.34313660860061646,0.46917131543159485
-1.4203627109527588,-0.3424876928329468,0.4595775306224823
-1.420522928237915,-0.341854065656662,0.4500195384025574
-1.4206825494766235,-0.34123560786247253,0.440496563911438
-1.4208412170410156,-0.34063205122947693,0.431007444858551
-1.4209998846054077,-0.3400436043739319,0.4215517044067383
-1.4211574792861938,-0.3394697606563568,0.4121280312538147
-1.4213149547576904,-0.33891069889068604,0.4027358889579773
-1.4214714765548706,-0.3383660912513733,0.39337411522865295
-1.4216277599334717,-0.33783602714538574,0.3840421438217163
-1.4217839241027832,-0.33732035756111145,0.3747391104698181
-1.4219393730163574,-0.3368188440799713,0.3654640018939972
-1.4220938682556152,-0.33633139729499817,0.3562159836292267
-1.422248363494873,-0.335858017206192,0.34699442982673645
-1.4224028587341309,-0.33539873361587524,0.3377985656261444
-1.4225561618804932,-0.33495309948921204,0.3286272883415222
-1.4227092266082764,-0.3345212936401367,0.3194800317287445
-1.4228624105453491,-0.33410322666168213,0.31035611033439636
-1.423014760017395,-0.33369866013526917,0.301254540681839
-1.4231669902801514,-0.3333077132701874,0.29217469692230225
-1.42331862449646,-0.3329300880432129,0.2831156849861145
-1.423470139503479,-0.33256590366363525,0.2740768790245056
-1.4236207008361816,-0.3322148323059082,0.26505738496780396
-1.423771858215332,-0.331877201795578,0.2560567259788513
-1.4239226579666138,-0.33155274391174316,0.24707402288913727
-1.4240726232528687,-0.3312412202358246,0.23810841143131256
-1.4242222309112549,-0.33094272017478943,0.22915929555892944
-1.4243718385696411,-0.3306572735309601,0.220225989818573
