-12.647692680358887,0.20865216851234436,-13.954578399658203
-12.629216194152832,0.20905597507953644,-14.020397186279297
-12.610600471496582,0.2094622254371643,-14.086397171020508
-12.591971397399902,0.2098730057477951,-14.152721405029297
-12.573196411132812,0.2102861851453781,-14.21922492980957
-12.554408073425293,0.2107040137052536,-14.28606128692627
-12.53548812866211,0.21112452447414398,-14.353097915649414
-12.516536712646484,0.21154946088790894,-14.420454978942871
-12.497413635253906,0.2119765281677246,-14.48797607421875
-12.478392601013184,0.2124103456735611,-14.555977821350098
-12.459090232849121,0.21284450590610504,-14.624022483825684
-12.439867973327637,0.2132851630449295,-14.692533493041992
-12.420452117919922,0.21372772753238678,-14.761195182800293
-12.401017189025879,0.21417522430419922,-14.830217361450195
-12.38152027130127,0.2146269679069519,-14.899553298950195
-12.361950874328613,0.2150827944278717,-14.969194412231445
-12.342201232910156,0.21554094552993774,-15.039015769958496
-12.322525024414062,0.2160058468580246,-15.109329223632812
-12.30262565612793,0.2164723426103592,-15.179776191711426
-12.282670021057129,0.21694345772266388,-15.250567436218262
-12.262638092041016,0.21741889417171478,-15.32168197631836
-12.242500305175781,0.21789813041687012,-15.393086433410645
-12.222308158874512,0.21838217973709106,-15.464851379394531
-12.202012062072754,0.21887020766735077,-15.536919593811035
-12.181609153747559,0.21936218440532684,-15.60929012298584
-12.161137580871582,0.21985889971256256,-15.682018280029297
-12.140531539916992,0.22035916149616241,-15.755022048950195
-12.119851112365723,0.2208641916513443,-15.828387260437012
-12.099043846130371,0.22137302160263062,-15.902047157287598
-12.078120231628418,0.22188594937324524,-15.97602367401123
-12.057231903076172,0.2224057912826538,-16.050519943237305
-12.036192893981934,0.2229292094707489,-16.125295639038086
-12.014932632446289,0.22345493733882904,-16.200260162353516
-11.993636131286621,0.22398649156093597,-16.275671005249023
-11.972390174865723,0.2245255410671234,-16.351646423339844
-11.950831413269043,0.22506533563137054,-16.427701950073242
-11.929300308227539,0.22561237215995789,-16.50430679321289
-11.907598495483398,0.22616295516490936,-16.581193923950195
-11.885769844055176,0.226718008518219,-16.658430099487305
-11.863909721374512,0.22727936506271362,-16.73615264892578
-11.841912269592285,0.22784511744976044,-16.814224243164062
-11.819877624511719,0.2284172624349594,-16.89278793334961
-11.797554969787598,0.22899100184440613,-16.971492767333984
-11.775179862976074,0.22957096993923187,-17.050683975219727
-11.752812385559082,0.23015844821929932,-17.130455017089844
-11.730224609375,0.23074905574321747,-17.210481643676758
-11.707505226135254,0.2313445657491684,-17.290897369384766
-11.684697151184082,0.2319459170103073,-17.37177276611328
-11.661896705627441,0.23255513608455658,-17.453262329101562
-11.638717651367188,0.23316459357738495,-17.5347900390625
-11.615660667419434,0.23378437757492065,-17.61712074279785
-11.592391967773438,0.23440788686275482,-17.699752807617188
-11.568910598754883,0.23503515124320984,-17.78269386291504
-11.545394897460938,0.23566986620426178,-17.866220474243164
-11.521624565124512,0.23630765080451965,-17.95000457763672
-11.497834205627441,0.23695340752601624,-18.03441619873047
-11.473945617675781,0.23760558664798737,-18.119338989257812
-11.449830055236816,0.23826166987419128,-18.2045841217041
-11.425661087036133,0.23892530798912048,-18.290430068969727
-11.4013671875,0.23959511518478394,-18.376771926879883
-11.376888275146484,0.24026994407176971,-18.463520050048828
-11.352293014526367,0.24095134437084198,-18.550798416137695
-11.327587127685547,0.24163953959941864,-18.638622283935547
-11.3026762008667,0.2423325926065445,-18.726844787597656
-11.277632713317871,0.24303217232227325,-18.815593719482422
-11.252488136291504,0.243739053606987,-18.904932022094727
-11.227106094360352,0.2444503903388977,-18.994638442993164
-11.201580047607422,0.2451682984828949,-19.08487892150879
-11.175957679748535,0.24589397013187408,-19.175745010375977
-11.150226593017578,0.24662724137306213,-19.267227172851562
-11.124345779418945,0.24736733734607697,-19.35926628112793
-11.098199844360352,0.2481117993593216,-19.45166778564453
-11.071937561035156,0.24886402487754822,-19.544702529907227
-11.045512199401855,0.2496231198310852,-19.63829803466797
-11.018956184387207,0.2503899335861206,-19.732524871826172
-10.992284774780273,0.251164972782135,-19.82741928100586
-10.965442657470703,0.2519470453262329,-19.922893524169922
-10.938274383544922,0.2527327835559845,-20.018678665161133
-10.911006927490234,0.2535274624824524,-20.11519432067871
-10.88371753692627,0.2543330788612366,-20.212596893310547
-10.8560791015625,0.25514212250709534,-20.31029510498047
-10.828310012817383,0.2559598386287689,-20.40870475769043
-10.800374984741211,0.25678551197052,-20.50777244567871
-10.772245407104492,0.2576186954975128,-20.607458114624023
-10.743916511535645,0.25845932960510254,-20.707761764526367
-10.715468406677246,0.2593095302581787,-20.80885124206543
-10.686809539794922,0.2601672410964966,-20.910568237304688
-10.657941818237305,0.26103267073631287,-21.012922286987305
-10.628706932067871,0.2619020640850067,-21.11561393737793
-10.599489212036133,0.26278501749038696,-21.219419479370117
-10.570045471191406,0.2636757493019104,-21.32387351989746
-10.540377616882324,0.26457440853118896,-21.42898941040039
-10.510483741760254,0.265481173992157,-21.534778594970703
-10.480430603027344,0.2663978636264801,-21.64139175415039
-10.450304985046387,0.2673269510269165,-21.74903106689453
-10.419770240783691,0.2682599425315857,-21.857006072998047
-10.388992309570312,0.26920124888420105,-21.965679168701172
-10.358180046081543,0.27015650272369385,-22.07550621032715
-10.326972961425781,0.27111655473709106,-22.18574333190918
-10.295673370361328,0.2720894515514374,-22.297046661376953
-10.263945579528809,0.27306655049324036,-22.408714294433594
-10.23211669921875,0.27405673265457153,-22.521467208862305
-10.200089454650879,0.2750575840473175,-22.635116577148438
-10.16778564453125,0.2760672867298126,-22.749507904052734
3.0601773262023926,0.16617393493652344,-24.811262130737305
3.1348183155059814,0.16609634459018707,-24.790176391601562
3.20939302444458,0.16602051258087158,-24.769128799438477
3.2838916778564453,0.1659458875656128,-24.748037338256836
3.3583261966705322,0.1658729910850525,-24.726978302001953
3.432698965072632,0.16580185294151306,-24.70595932006836
3.5070114135742188,0.1657324731349945,-24.68497657775879
3.581265449523926,0.16566483676433563,-24.664033889770508
3.6554501056671143,0.16559839248657227,-24.643041610717773
3.7295780181884766,0.1655336618423462,-24.622081756591797
3.8036530017852783,0.16547071933746338,-24.601165771484375
3.8776745796203613,0.16540946066379547,-24.580278396606445
3.9516327381134033,0.16534942388534546,-24.559349060058594
4.025541305541992,0.16529113054275513,-24.538455963134766
4.099401950836182,0.16523456573486328,-24.517595291137695
4.173203468322754,0.16517923772335052,-24.4966983795166
4.246973037719727,0.16512612998485565,-24.475908279418945
4.320687294006348,0.16507428884506226,-24.45508575439453
4.394343852996826,0.1650235801935196,-24.434206008911133
4.467976093292236,0.16497521102428436,-24.4134521484375
4.5415544509887695,0.16492800414562225,-24.39264678955078
4.6150970458984375,0.1648825705051422,-24.37188148498535
4.688588619232178,0.16483831405639648,-24.351072311401367
4.7620463371276855,0.16479581594467163,-24.330297470092773
4.835472583770752,0.16475507616996765,-24.309560775756836
4.9088521003723145,0.16471554338932037,-24.28878402709961
4.982218265533447,0.16467826068401337,-24.268115997314453
5.055541515350342,0.16464221477508545,-24.247406005859375
5.128822326660156,0.16460739076137543,-24.226655960083008
5.202078819274902,0.1645742952823639,-24.20594024658203
5.275312900543213,0.16454297304153442,-24.18526268005371
5.348508358001709,0.16451285779476166,-24.164541244506836
5.4216837882995605,0.16448450088500977,-24.14385414123535
5.494843006134033,0.16445791721343994,-24.123210906982422
5.567966938018799,0.164432555437088,-24.102519989013672
5.641075611114502,0.16440893709659576,-24.081865310668945
5.714170932769775,0.1643870621919632,-24.061243057250977
5.787236213684082,0.16436642408370972,-24.04058074951172
5.860291957855225,0.1643475592136383,-24.019954681396484
5.933320999145508,0.16432996094226837,-23.999292373657227
6.006342887878418,0.16431410610675812,-23.97866439819336
6.079339504241943,0.16429950296878815,-23.95799446105957
6.152332305908203,0.16428665816783905,-23.937358856201172
6.225323677062988,0.1642756164073944,-23.916763305664062
6.298292636871338,0.16426578164100647,-23.896121978759766
6.371264934539795,0.16425777971744537,-23.87552261352539
6.444218635559082,0.16425102949142456,-23.854883193969727
6.517177104949951,0.16424605250358582,-23.834278106689453
6.590120792388916,0.16424237191677094,-23.813636779785156
6.663071632385254,0.16424044966697693,-23.79302978515625
6.736029624938965,0.164240300655365,-23.77245330810547
6.808979511260986,0.1642414629459381,-23.75184440612793
6.881918907165527,0.1642439067363739,-23.7311954498291
6.954871654510498,0.16424812376499176,-23.71057891845703
7.027841091156006,0.16425418853759766,-23.690004348754883
7.10078239440918,0.16426099836826324,-23.669313430786133
7.173764705657959,0.16427013278007507,-23.648733139038086
7.246745586395264,0.16428059339523315,-23.628116607666016
7.319725513458252,0.1642923504114151,-23.607463836669922
7.392728805541992,0.1643059402704239,-23.58684539794922
7.465734004974365,0.16432082653045654,-23.56618881225586
7.538766384124756,0.16433756053447723,-23.545570373535156
7.6118035316467285,0.16435560584068298,-23.524913787841797
7.684872150421143,0.16437552869319916,-23.50429916381836
7.75794792175293,0.1643967479467392,-23.483642578125
7.831031322479248,0.1644192785024643,-23.462947845458984
7.904151916503906,0.1644437164068222,-23.442293167114258
7.977283477783203,0.16446946561336517,-23.421600341796875
8.050456047058105,0.16449710726737976,-23.400949478149414
8.123641967773438,0.1645260900259018,-23.380260467529297
8.196846008300781,0.16455645859241486,-23.35953712463379
8.270092010498047,0.16458867490291595,-23.338848114013672
8.3433837890625,0.16462276875972748,-23.31819725036621
8.416672706604004,0.16465777158737183,-23.297441482543945
8.490009307861328,0.1646946370601654,-23.27672004699707
8.563371658325195,0.1647329181432724,-23.25596809387207
8.636784553527832,0.16477307677268982,-23.235248565673828
8.710225105285645,0.16481463611125946,-23.214496612548828
8.783695220947266,0.1648576259613037,-23.19371223449707
8.857222557067871,0.16490252315998077,-23.172964096069336
8.930753707885742,0.16494831442832947,-23.152109146118164
9.004376411437988,0.16499659419059753,-23.13136863708496
9.078006744384766,0.16504579782485962,-23.110525131225586
9.151700973510742,0.1650969386100769,-23.089717864990234
9.225431442260742,0.1651494950056076,-23.068872451782227
9.29920482635498,0.1652035415172577,-23.048002243041992
9.373046875,0.16525952517986298,-23.027164459228516
9.446904182434082,0.16531649231910706,-23.006227493286133
9.520862579345703,0.16537590324878693,-22.985395431518555
9.594841957092285,0.16543635725975037,-22.96446990966797
9.668867111206055,0.1654982715845108,-22.943506240844727
9.742972373962402,0.16556218266487122,-22.922584533691406
9.817129135131836,0.165627583861351,-22.901628494262695
9.891338348388672,0.1656944900751114,-22.880640029907227
9.965603828430176,0.16576294600963593,-22.859628677368164
10.039958000183105,0.1658334583044052,-22.83865737915039
10.114337921142578,0.1659049540758133,-22.817581176757812
10.188807487487793,0.16597849130630493,-22.79654312133789
10.263338088989258,0.16605356335639954,-22.77547264099121
10.337939262390137,0.16613028943538666,-22.75438690185547
10.32043170928955,0.0933685153722763,-9.528371810913086
10.436288833618164,0.09415042400360107,-9.576193809509277
10.518789291381836,0.09462875872850418,-9.592619895935059
10.591190338134766,0.09501470625400543,-9.599295616149902
10.657634735107422,0.0953461080789566,-9.600125312805176
10.718533515930176,0.09562710672616959,-9.595579147338867
10.775649070739746,0.09587381035089493,-9.587320327758789
10.832401275634766,0.09611682593822479,-9.578433990478516
10.883535385131836,0.09630973637104034,-9.564311981201172
10.93453311920166,0.09650129824876785,-9.549834251403809
10.985210418701172,0.09668991714715958,-9.534843444824219
11.032868385314941,0.09685194492340088,-9.517017364501953
11.079891204833984,0.09700847417116165,-9.49845027923584
10.334583282470703,0.09024609625339508,-8.804656982421875
10.259657859802246,0.08935867249965668,-8.68664264678955
10.214770317077637,0.08873763680458069,-8.594972610473633
10.180301666259766,0.08821090310811996,-8.512761116027832
10.151103019714355,0.08773323893547058,-8.435561180114746
10.127425193786621,0.0873064249753952,-8.363492012023926
10.107056617736816,0.08691104501485825,-8.294647216796875
10.090847969055176,0.0865541398525238,-8.229665756225586
10.077506065368652,0.08622436225414276,-8.167430877685547
10.068456649780273,0.08593367040157318,-8.109044075012207
10.060388565063477,0.08565357327461243,-8.051786422729492
10.056031227111816,0.08540716767311096,-7.997809410095215
10.052841186523438,0.08517265319824219,-7.94504451751709
10.052170753479004,0.08496136218309402,-7.894532680511475
10.052326202392578,0.08475885540246964,-7.844912528991699
10.963616371154785,0.09222227334976196,-8.502098083496094
10.9301118850708,0.09172265231609344,-8.4225435256958
10.902729988098145,0.09127750992774963,-8.348258018493652
10.885275840759277,0.09091823548078537,-8.282042503356934
10.87470531463623,0.09061884135007858,-8.221445083618164
10.874040603637695,0.09040404111146927,-8.168634414672852
10.877071380615234,0.09022173285484314,-8.118829727172852
10.890233993530273,0.0901249498128891,-8.07674789428711
10.908961296081543,0.09007540345191956,-8.038877487182617
10.936031341552734,0.090095654129982,-8.007170677185059
10.963905334472656,0.09012327343225479,-7.97602653503418
11.0016450881958,0.09023253619670868,-7.951981067657471
11.044029235839844,0.09038016945123672,-7.931146144866943
11.096510887145996,0.09061044454574585,-7.917347431182861
11.165563583374023,0.09097559005022049,-7.915034770965576
11.576037406921387,0.09411583840847015,-8.152765274047852
11.793716430664062,0.09567933529615402,-8.252058982849121
11.806797981262207,0.09558073431253433,-8.20737075805664
11.817995071411133,0.09546822309494019,-8.161491394042969
11.825865745544434,0.09533027559518814,-8.113454818725586
11.829728126525879,0.0951615646481514,-8.062841415405273
11.829278945922852,0.09495982527732849,-8.00949478149414
11.82548999786377,0.09473307430744171,-7.954125881195068
11.816241264343262,0.09446448087692261,-7.895359516143799
11.802411079406738,0.09416133910417557,-7.833850383758545
11.78217601776123,0.09380931407213211,-7.7684526443481445
11.757516860961914,0.09342443943023682,-7.700545310974121
11.721650123596191,0.09295310825109482,-7.625770092010498
11.673345565795898,0.09238608926534653,-7.5434746742248535
11.59732437133789,0.09160325676202774,-7.444010257720947
7.299399375915527,0.1606598049402237,23.041139602661133
7.214112758636475,0.16033613681793213,23.0169620513916
7.129201889038086,0.1600160300731659,22.992990493774414
7.044625282287598,0.15969862043857574,22.969100952148438
6.960359573364258,0.15938343107700348,22.94523048400879
6.87644100189209,0.15907135605812073,22.921506881713867
6.792843341827393,0.15876182913780212,22.89785385131836
6.717217922210693,0.15863563120365143,22.90036964416504
6.655288219451904,0.15883512794971466,22.949695587158203
6.593441963195801,0.15904241800308228,22.999982833862305
6.531434535980225,0.15925179421901703,23.05040740966797
6.46924352645874,0.15946272015571594,23.100893020629883
6.406935691833496,0.1596769392490387,23.151691436767578
6.344293594360352,0.15988904237747192,23.20201873779297
6.281569004058838,0.1601053774356842,23.252792358398438
6.218681335449219,0.16032402217388153,23.303733825683594
6.140172481536865,0.16014185547828674,23.29620361328125
5.90179443359375,0.1557382345199585,22.673812866210938
5.814050197601318,0.15525346994400024,22.621179580688477
5.734399318695068,0.1549772024154663,22.598623275756836
5.6550469398498535,0.1547037959098816,22.57621192932129
5.575984477996826,0.15443313121795654,22.553926467895508
5.497165203094482,0.1541639268398285,22.531583786010742
5.418636798858643,0.15389762818813324,22.50939178466797
5.340386867523193,0.15363392233848572,22.48731231689453
5.262394428253174,0.15337228775024414,22.465267181396484
5.400029182434082,0.15947303175926208,23.375553131103516
5.42763614654541,0.16244645416736603,23.828161239624023
5.362094879150391,0.16267666220664978,23.87849235534668
5.2963457107543945,0.1629084050655365,23.928871154785156
5.2303900718688965,0.16314178705215454,23.979310989379883
5.164267539978027,0.16337810456752777,24.030000686645508
5.097937107086182,0.1636161357164383,24.080764770507812
5.031469345092773,0.16385826468467712,24.1319522857666
4.964722156524658,0.16409996151924133,24.182893753051758
4.8978142738342285,0.1643451601266861,24.234167098999023
4.830679893493652,0.16459177434444427,24.28546714782715
4.7633538246154785,0.16484107077121735,24.336978912353516
4.695799827575684,0.1650918424129486,24.38852310180664
-14.010177612304688,0.12533888220787048,12.620010375976562
-4.6410231590271,0.041405629366636276,4.154794692993164
-4.650463581085205,0.04137640818953514,4.137614727020264
-4.6598801612854,0.04134752228856087,4.120449066162109
-4.6692728996276855,0.04131896793842316,4.103297710418701
-4.678682804107666,0.04129110649228096,4.086195945739746
-4.688066482543945,0.04126355051994324,4.069105625152588
-4.69742488861084,0.041236307471990585,4.052026748657227
-4.706777572631836,0.04120954871177673,4.034976005554199
-4.716127395629883,0.04118328541517258,4.017954349517822
-4.725470066070557,0.04115748777985573,4.0009589195251465
-4.7347846031188965,0.04113196209073067,3.9839701652526855
-4.744101524353027,0.04110698029398918,3.9670145511627197
-4.753419876098633,0.04108252376317978,3.950089454650879
-4.762710094451904,0.04105833172798157,3.9331703186035156
-4.7720136642456055,0.0410347618162632,3.916290283203125
-4.7812886238098145,0.04101145267486572,3.8994152545928955
-4.790553569793701,0.040988557040691376,3.8825595378875732
-4.799801349639893,0.040966011583805084,3.8657166957855225
-4.809040546417236,0.040943894535303116,3.848893880844116
-4.818282604217529,0.040922291576862335,3.8320987224578857
-4.827534198760986,0.04090125858783722,3.8153364658355713
-4.836774826049805,0.04088062047958374,3.7985899448394775
-4.846004486083984,0.0408603735268116,3.7818591594696045
-4.855226993560791,0.04084054380655289,3.765145778656006
-4.864437580108643,0.04082109034061432,3.748446464538574
-4.87363862991333,0.040802035480737686,3.731762170791626
-4.882828712463379,0.0407833606004715,3.7150912284851074
-4.89202880859375,0.04076523706316948,3.69844913482666
-4.90119743347168,0.040747325867414474,3.681804656982422
-4.910373687744141,0.040729936212301254,3.6651859283447266
-4.91951847076416,0.04071275144815445,3.6485636234283447
-4.928670406341553,0.04069608077406883,3.6319661140441895
-4.937836170196533,0.04067998379468918,3.6153972148895264
-4.946962833404541,0.04066402092576027,3.59881854057312
-4.956100940704346,0.040648605674505234,3.582265853881836
-4.9652252197265625,0.04063352942466736,3.565720796585083
-4.974338054656982,0.04061880335211754,3.5491843223571777
-4.983475685119629,0.04060472548007965,3.532681941986084
-4.992604732513428,0.04059102013707161,3.5161890983581543
-5.001717567443848,0.04057762399315834,3.499699831008911
-5.010838508605957,0.04056473448872566,3.483231544494629
-5.01987361907959,0.04055158793926239,3.4667181968688965
-5.02890157699585,0.04053881764411926,3.450214147567749
-5.037909984588623,0.04052632302045822,3.433710813522339
-5.046905994415283,0.04051416367292404,3.417213201522827
-5.055922031402588,0.04050259292125702,3.4007420539855957
-5.064931392669678,0.04049139842391014,3.3842790126800537
-5.073945045471191,0.04048066586256027,3.367831230163574
-5.082943916320801,0.04047023877501488,3.3513851165771484
-5.091948986053467,0.04046028479933739,3.3349545001983643
-5.100937366485596,0.04045061394572258,3.318523645401001
-5.1099324226379395,0.040441419929265976,3.302107810974121
-5.118931293487549,0.04043266922235489,3.2857041358947754
-5.127914905548096,0.04042421281337738,3.2692999839782715
-5.136903285980225,0.040416207164525986,3.2529079914093018
-5.145872592926025,0.04040846228599548,3.2365126609802246
-5.154849052429199,0.04040118306875229,3.22012996673584
-5.16380500793457,0.04039414972066879,3.203742027282715
-5.172792911529541,0.040387775748968124,3.1873817443847656
-5.181735515594482,0.040381450206041336,3.1710000038146973
-5.190707206726074,0.04037575051188469,3.154642343521118
-5.199660778045654,0.040370311588048935,3.138279914855957
-5.208616256713867,0.04036528989672661,3.12192440032959
-5.2176337242126465,0.04036114364862442,3.1056110858917236
-5.226654529571533,0.04035741835832596,3.089303493499756
-5.235694885253906,0.04035423323512077,3.073011636734009
-5.244680881500244,0.0403510257601738,3.0566911697387695
-5.253641605377197,0.04034801200032234,3.0403592586517334
-5.262629985809326,0.04034560173749924,3.0240461826324463
-5.2715983390808105,0.04034342244267464,3.0077240467071533
-5.2805705070495605,0.040341660380363464,2.991406202316284
-5.289555072784424,0.04034037888050079,2.975097179412842
-5.29854679107666,0.04033953323960304,2.9587929248809814
-5.307545185089111,0.04033912345767021,2.942493200302124
-5.316544055938721,0.04033909738063812,2.926194190979004
-5.32551908493042,0.04033926874399185,2.909881830215454
-5.334500789642334,0.040339868515729904,2.8935728073120117
-5.343509197235107,0.04034104570746422,2.877277135848999
-5.352492809295654,0.040342412889003754,2.860966920852661
-5.361480712890625,0.04034418612718582,2.8446574211120605
-5.370471954345703,0.04034636169672012,2.828347682952881
-5.379465579986572,0.04034892097115517,2.8120365142822266
-5.364059925079346,0.040169138461351395,2.7830631732940674
-4.150454521179199,0.03103172406554222,2.1372666358947754
-4.170782089233398,0.03113466314971447,2.131570816040039
-4.191174507141113,0.03123806044459343,2.1258013248443604
-4.211765289306641,0.03134290128946304,2.1200244426727295
-4.232511043548584,0.03144887462258339,2.1142170429229736
-4.25338888168335,0.031555790454149246,2.108365535736084
-4.274397373199463,0.031663648784160614,2.1024680137634277
-4.295543670654297,0.031772494316101074,2.096526861190796
-4.316853046417236,0.031882524490356445,2.090553045272827
-4.338296413421631,0.03199351206421852,2.084530830383301
-4.3599467277526855,0.03210599720478058,2.078493356704712
-4.381666660308838,0.032218970358371735,2.072373867034912
-4.403550148010254,0.032333116978406906,2.066215991973877
-4.425652980804443,0.03244885057210922,2.0600435733795166
-4.4478278160095215,0.03256508335471153,2.0537867546081543
-4.470218181610107,0.0326828695833683,2.0475103855133057
-4.492756366729736,0.03280171379446983,2.041181802749634
-4.515470027923584,0.03292181342840195,2.034811496734619
-4.538330078125,0.03304295614361763,2.0283854007720947
-4.561339855194092,0.03316516429185867,2.0219027996063232
-4.58457612991333,0.03328900411725044,2.0153968334198
-4.607966423034668,0.03341393172740936,2.0088326930999756
-4.631465911865234,0.03353963792324066,2.002190351486206
-4.65527868270874,0.033667586743831635,1.9955555200576782
-4.679171562194824,0.03379609435796738,1.9888263940811157
-4.703224182128906,0.03392574191093445,1.9820358753204346
-4.727519512176514,0.034057117998600006,1.9752167463302612
-4.751992225646973,0.034189753234386444,1.9683395624160767
-4.77664852142334,0.03432369604706764,1.9614053964614868
-4.801555633544922,0.034459423273801804,1.954439640045166
-4.8265485763549805,0.03459575027227402,1.9473732709884644
-4.851799488067627,0.03473391383886337,1.9402744770050049
-4.877227783203125,0.03487333282828331,1.9331084489822388
-5.803459167480469,0.04144589975476265,2.279646873474121
-5.79693078994751,0.04134964197874069,2.2565784454345703
-5.790438652038574,0.041254255920648575,2.23361873626709
-5.78398323059082,0.041159749031066895,2.2107670307159424
-5.777543067932129,0.04106595739722252,2.188014507293701
-5.7711381912231445,0.04097302258014679,2.165367364883423
-5.764769077301025,0.04088093712925911,2.142824649810791
-5.7584123611450195,0.04078953340649605,2.1203770637512207
-5.752090930938721,0.04069896787405014,2.098031997680664
-5.745785236358643,0.040609102696180344,2.0757813453674316
-5.739516735076904,0.040520079433918,2.0536317825317383
-5.733281135559082,0.04043186455965042,2.031581163406372
-5.7270827293396,0.0403444804251194,2.009629487991333
-5.720897197723389,0.04025775566697121,1.9877674579620361
-5.714724063873291,0.04017168655991554,1.9659942388534546
-5.708607196807861,0.04008656367659569,1.9443238973617554
-5.702505111694336,0.04000210389494896,1.9227412939071655
-5.696415901184082,0.039918284863233566,1.9012449979782104
-5.690359592437744,0.03983524069190025,1.8798408508300781
-5.6843390464782715,0.03975299373269081,1.858528971672058
-5.6783294677734375,0.03967135772109032,1.837300181388855
-5.6723551750183105,0.0395905040204525,1.8161615133285522
-5.6663923263549805,0.03951026126742363,1.7951048612594604
-5.660463333129883,0.039430782198905945,1.7741360664367676
-5.654547691345215,0.039351917803287506,1.7532479763031006
-5.648665428161621,0.039273809641599655,1.7324461936950684
-5.642796516418457,0.039196304976940155,1.7117235660552979
-5.636959075927734,0.03911953419446945,1.6910849809646606
-5.631153583526611,0.03904349356889725,1.6705296039581299
-5.625360012054443,0.0389680415391922,1.6500507593154907
-5.619578838348389,0.03889317438006401,1.6296476125717163
-5.61383056640625,0.03881904110312462,1.609325885772705
-5.6081156730651855,0.03874562680721283,1.5890843868255615
-5.602390766143799,0.038672637194395065,1.5689103603363037
-5.596718788146973,0.03860050439834595,1.5488207340240479
-5.591058731079102,0.0385289341211319,1.5288032293319702
-5.585409641265869,0.038457926362752914,1.5088567733764648
-5.5797929763793945,0.03838761895895004,1.488986849784851
-5.574188709259033,0.03831787034869194,1.4691870212554932
-5.568614482879639,0.038248803466558456,1.4494614601135254
-5.563051700592041,0.038180284202098846,1.4298044443130493
-5.557501316070557,0.03811232000589371,1.4102156162261963
-5.551980495452881,0.038045018911361694,1.3906986713409424
-5.546472072601318,0.037978265434503555,1.371248722076416
-5.540994167327881,0.03791218250989914,1.3518694639205933
-5.535528182983398,0.037846632301807404,1.3325556516647339
-5.530091285705566,0.0377817340195179,1.3133106231689453
-5.5246663093566895,0.037717364728450775,1.2941298484802246
-5.519251346588135,0.03765351325273514,1.2750122547149658
-5.5138678550720215,0.03759032487869263,1.2559621334075928
-5.5084943771362305,0.03752763941884041,1.236973762512207
-5.503130912780762,0.03746546804904938,1.21804678440094
-5.497797966003418,0.03740393742918968,1.1991850137710571
-5.4924750328063965,0.03734290972352028,1.180383324623108
-5.4871826171875,0.03728251904249191,1.161645531654358
-5.4818806648254395,0.037222497165203094,1.1429624557495117
-5.47662878036499,0.03716323897242546,1.124346137046814
-5.4713664054870605,0.03710433095693588,1.105783224105835
-5.4661335945129395,0.037046048790216446,1.087281584739685
-5.460912704467773,0.036988265812397,1.0688368082046509
-5.455699443817139,0.036930955946445465,1.0504478216171265
-5.450517177581787,0.03687426447868347,1.032118320465088
-5.445343971252441,0.03681805357336998,1.0138435363769531
-5.440199851989746,0.03676244243979454,0.99562668800354
-5.435067176818848,0.0367073230445385,0.9774639010429382
-5.429923057556152,0.03665253147482872,0.9593505859375
-5.437958240509033,0.036687057465314865,0.9435753226280212
-5.468847751617432,0.03687599301338196,0.9316608309745789
-5.507269859313965,0.03711584582924843,0.9208289980888367
-5.54623556137085,0.037359464913606644,0.90986168384552
-5.585601806640625,0.0376058854162693,0.898730993270874
-5.625682830810547,0.03785722702741623,0.8874825239181519
-5.666186332702637,0.038111522793769836,0.8760644197463989
-5.707275390625,0.03836987540125847,0.8644975423812866
-5.748955249786377,0.038632314652204514,0.8527769446372986
-5.791084289550781,0.03889789804816246,0.8408766388893127
-5.8338398933410645,0.03916781768202782,0.82881760597229
-5.877231597900391,0.039442140609025955,0.8165951371192932
-5.921270370483398,0.039720937609672546,0.8042048811912537
-5.9658026695251465,0.04000318795442581,0.7916203141212463
-6.011181831359863,0.04029126092791557,0.778882622718811
-6.057076454162598,0.040582939982414246,0.765941858291626
-15.145617485046387,0.10143808275461197,1.868033766746521
-17.17459487915039,0.11498422920703888,2.0648117065429688
-17.15900993347168,0.11483807861804962,2.0095536708831787
-17.143455505371094,0.1146933063864708,1.9544340372085571
-17.127866744995117,0.11454948782920837,1.8994446992874146
-17.11236572265625,0.11440742760896683,1.8445976972579956
-17.096954345703125,0.11426714062690735,1.7898916006088257
-17.081510543823242,0.11412780731916428,1.7353119850158691
-17.06609344482422,0.11398980766534805,1.6808634996414185
-17.050764083862305,0.1138535588979721,1.6265510320663452
-17.03546142578125,0.11371862143278122,1.5723665952682495
-17.020191192626953,0.11358505487442017,1.5183098316192627
-17.00494384765625,0.11345278471708298,1.4643781185150146
-16.989723205566406,0.11332183331251144,1.4105708599090576
-16.974533081054688,0.11319221556186676,1.356886625289917
-16.959426879882812,0.11306428909301758,1.303328514099121
-16.944290161132812,0.11293727904558182,1.2498859167099
-16.929241180419922,0.11281196773052216,1.1965665817260742
-16.914213180541992,0.11268792301416397,1.1433641910552979
-16.89921760559082,0.11256520450115204,1.0902780294418335
-16.884246826171875,0.11244376003742218,1.037306547164917
-16.86930274963379,0.11232359707355499,0.9844483137130737
-16.854381561279297,0.11220468580722809,0.9317020177841187
-16.83949089050293,0.11208707094192505,0.8790667057037354
-16.824684143066406,0.11197110265493393,0.8265436887741089
-16.809844970703125,0.11185601353645325,0.774125874042511
-16.795087814331055,0.11174255609512329,0.7218174934387207
-16.780303955078125,0.11163000017404556,0.6696123480796814
-16.765600204467773,0.11151906102895737,0.6175136566162109
-16.750865936279297,0.11140899360179901,0.5655158758163452
-16.736215591430664,0.11130054295063019,0.5136218070983887
-16.721588134765625,0.11119332164525986,0.4618280827999115
-16.70699119567871,0.1110873594880104,0.41013360023498535
-16.692419052124023,0.11098264157772064,0.3585370182991028
-16.677810668945312,0.11087872833013535,0.30703598260879517
-16.663284301757812,0.11077641695737839,0.25563162565231323
-16.648792266845703,0.1106753796339035,0.20432166755199432
-16.634321212768555,0.11057554185390472,0.15310469269752502
-16.619873046875,0.11047690361738205,0.10197954624891281
-16.605449676513672,0.11037946492433548,0.050945039838552475
-16.591053009033203,0.1102832481265068,3.047626238286867e-15
-16.57668113708496,0.11018823832273483,-0.050856780260801315
-16.562334060668945,0.11009442061185837,-0.10162647813558578
-16.548011779785156,0.11000180244445801,-0.1523102968931198
-16.533714294433594,0.10991038382053375,-0.20290938019752502
-16.51944351196289,0.1098201647400856,-0.2534249424934387
-16.50519561767578,0.10973113775253296,-0.3038581609725952
-16.490970611572266,0.10964326560497284,-0.35421010851860046
-16.47671890258789,0.10955624282360077,-0.4044807255268097
-16.462543487548828,0.10947075486183167,-0.4546736180782318
-16.448396682739258,0.10938647389411926,-0.504788875579834
-16.43427085876465,0.10930332541465759,-0.5548274517059326
-16.420116424560547,0.10922101885080338,-0.6047887206077576
-16.406042098999023,0.10914024710655212,-0.6546775698661804
-16.391931533813477,0.10906023532152176,-0.7044906616210938
-16.377906799316406,0.10898181051015854,-0.7542343139648438
-16.363849639892578,0.108904168009758,-0.8039043545722961
-16.349811553955078,0.10882766544818878,-0.8535041809082031
-16.335803985595703,0.10875236243009567,-0.9030353426933289
-16.321874618530273,0.10867856442928314,-0.9525018334388733
-16.30790901184082,0.1086055338382721,-1.0018985271453857
-16.293916702270508,0.10853332281112671,-1.051226258277893
-16.280004501342773,0.1084626242518425,-1.10049307346344
-16.266115188598633,0.10839307308197021,-1.1496964693069458
-16.25225257873535,0.10832469910383224,-1.1988381147384644
-16.23835563659668,0.10825708508491516,-1.2479143142700195
-16.2244815826416,0.10819060355424881,-1.2969300746917725
-16.210634231567383,0.10812529921531677,-1.3458870649337769
-16.196863174438477,0.10806147754192352,-1.394790530204773
-16.18301010131836,0.1079980880022049,-1.4436278343200684
-16.169233322143555,0.10793620347976685,-1.4924142360687256
-16.15547752380371,0.10787542164325714,-1.5411453247070312
-16.141695022583008,0.1078154593706131,-1.5898181200027466
-16.12798500061035,0.10775695741176605,-1.6384432315826416
-16.114248275756836,0.10769925266504288,-1.687011480331421
-16.100536346435547,0.10764268040657043,-1.7355293035507202
-16.086849212646484,0.10758726298809052,-1.7839980125427246
-16.073129653930664,0.10753259807825089,-1.832411766052246
-16.059484481811523,0.10747940838336945,-1.8807841539382935
-16.04581069946289,0.10742700099945068,-1.929103970527649
-16.03216552734375,0.10737575590610504,-1.9773789644241333
-16.01854133605957,0.10732562094926834,-2.0256094932556152
-16.00493812561035,0.10727661103010178,-2.0737967491149902
-15.991307258605957,0.1072283685207367,-2.1219348907470703
-15.97769832611084,0.10718125849962234,-2.1700315475463867
-15.96411418914795,0.10713527351617813,-2.218088150024414
-15.950552940368652,0.10709042102098465,-2.266105890274048
-15.937017440795898,0.1070467084646225,-2.3140857219696045
-15.923446655273438,0.10700372606515884,-2.362020254135132
-15.909906387329102,0.10696191340684891,-2.409919500350952
-15.896387100219727,0.10692121833562851,-2.4577836990356445
-15.882888793945312,0.10688162595033646,-2.505613327026367
-15.869361877441406,0.10684281587600708,-2.5534019470214844
-15.855857849121094,0.10680512338876724,-2.601158618927002
-15.842377662658691,0.10676855593919754,-2.6488842964172363
-15.82887077331543,0.10673277825117111,-2.6965715885162354
-15.815438270568848,0.10669847577810287,-2.74423885345459
-15.80197525024414,0.10666492581367493,-2.7918689250946045
-15.788484573364258,0.10663216561079025,-2.839463233947754
-15.775066375732422,0.10660086572170258,-2.887040615081787
-15.761625289916992,0.10657037049531937,-2.934584617614746
-15.748204231262207,0.1065409854054451,-2.9821040630340576
-15.734755516052246,0.10651238262653351,-3.0295913219451904
-15.721330642700195,0.10648491233587265,-3.077056884765625
-15.707929611206055,0.10645856708288193,-3.1245014667510986
-15.694500923156738,0.10643300414085388,-3.1719162464141846
-15.681143760681152,0.10640890151262283,-3.2193222045898438
-15.667709350585938,0.1063852459192276,-3.2666897773742676
-15.654348373413086,0.10636305809020996,-3.3140509128570557
-15.640961647033691,0.10634167492389679,-3.3613860607147217
-15.627598762512207,0.10632142424583435,-3.4087069034576416
-15.61420726776123,0.10630194842815399,-3.456002712249756
-15.600838661193848,0.10628361254930496,-3.5032856464385986
-15.587492942810059,0.10626640170812607,-3.5505566596984863
-15.57412338256836,0.10625000298023224,-3.597806453704834
-15.560772895812988,0.10623472183942795,-3.6450459957122803
-15.547447204589844,0.10622058063745499,-3.692276954650879
-15.534096717834473,0.10620724409818649,-3.7394890785217285
-15.520766258239746,0.10619504004716873,-3.786694049835205
-15.507411003112793,0.10618364065885544,-3.8338818550109863
-15.494081497192383,0.10617339611053467,-3.8810653686523438
-15.480720520019531,0.10616392642259598,-3.928231716156006
-15.467385292053223,0.10615561157464981,-3.975396156311035
-15.454071998596191,0.10614844411611557,-4.02255916595459
-15.440733909606934,0.10614209622144699,-4.069709300994873
-15.427421569824219,0.10613690316677094,-4.1168599128723145
-15.414082527160645,0.10613252222537994,-4.163999557495117
-15.40076732635498,0.10612930357456207,-4.211142063140869
-15.387425422668457,0.10612688213586807,-4.258274078369141
-15.37410831451416,0.10612564533948898,-4.305411338806152
-15.360814094543457,0.10612555593252182,-4.352554798126221
-15.347491264343262,0.10612626373767853,-4.3996901512146
-15.334144592285156,0.10612781345844269,-4.446819305419922
-15.320823669433594,0.10613054037094116,-4.493958473205566
-15.307476997375488,0.1061340942978859,-4.541093349456787
-15.29415512084961,0.10613882541656494,-4.5882391929626465
-15.280854225158691,0.10614471882581711,-4.635396480560303
-15.267481803894043,0.10615111887454987,-4.682538032531738
-15.254182815551758,0.10615904629230499,-4.729709148406982
-15.240857124328613,0.10616780072450638,-4.776879787445068
-15.227507591247559,0.10617740452289581,-4.824051856994629
-15.214184761047363,0.10618820786476135,-4.871242523193359
-15.200838088989258,0.10619987547397614,-4.918436050415039
-15.187464714050293,0.10621237754821777,-4.965632915496826
-15.174115180969238,0.10622607171535492,-5.012850761413574
-15.160787582397461,0.10624095052480698,-5.060089111328125
-15.14743709564209,0.10625669360160828,-5.107334613800049
-15.134069442749023,0.106273353099823,-5.154590606689453
-15.120721817016602,0.10629119724035263,-5.201870441436768
-15.107352256774902,0.1063099205493927,-5.249159812927246
-15.09395694732666,0.10632950067520142,-5.296459197998047
-15.080586433410645,0.10635031014680862,-5.34378719329834
-15.067194938659668,0.10637201368808746,-5.3911285400390625
-15.053824424743652,0.10639490932226181,-5.4384989738464355
-15.040436744689941,0.10641874372959137,-5.485886573791504
-15.027022361755371,0.10644344240427017,-5.53328800201416
-15.013588905334473,0.106469064950943,-5.580707550048828
-15.000177383422852,0.10649590194225311,-5.62816047668457
-14.98679256439209,0.10652399808168411,-5.6756510734558105
-14.973337173461914,0.10655266046524048,-5.723142623901367
-14.959908485412598,0.10658258199691772,-5.7706732749938965
-14.946455955505371,0.10661341995000839,-5.818225383758545
-14.933029174804688,0.10664550215005875,-5.865818023681641
-14.919537544250488,0.10667821764945984,-5.913417339324951
-14.906067848205566,0.10671216994524002,-5.961058616638184
-14.892624855041504,0.10674739629030228,-6.008744716644287
-14.879110336303711,0.10678321123123169,-6.056437969207764
-14.865625381469727,0.10682033747434616,-6.104179382324219
-14.852119445800781,0.10685840994119644,-6.151949405670166
-14.838594436645508,0.10689744353294373,-6.199749946594238
-14.825093269348145,0.10693775862455368,-6.247600555419922
-14.811528205871582,0.10697872191667557,-6.295464515686035
-14.797983169555664,0.10702095925807953,-6.343379020690918
-14.78442096710205,0.10706417262554169,-6.391328811645508
-14.77088451385498,0.1071087121963501,-6.439334392547607
-14.757287979125977,0.10715393722057343,-6.487358570098877
-14.743711471557617,0.10720044374465942,-6.53543758392334
-14.730117797851562,0.10724795609712601,-6.58355712890625
-14.716501235961914,0.10729645192623138,-6.631714820861816
-14.702873229980469,0.10734599828720093,-6.679915904998779
-14.689220428466797,0.10739652067422867,-6.7281575202941895
-14.675551414489746,0.10744808614253998,-6.7764434814453125
-14.661907196044922,0.10750097781419754,-6.824793815612793
-14.648201942443848,0.107554592192173,-6.873169898986816
-14.63452434539795,0.1076095774769783,-6.921614646911621
-14.620827674865723,0.10766559839248657,-6.970107078552246
-14.607110023498535,0.10772264003753662,-7.018646717071533
-14.59337329864502,0.10778073221445084,-7.067236423492432
-14.579626083374023,0.1078399270772934,-7.115880966186523
-14.565858840942383,0.10790017247200012,-7.164577484130859
-14.55207347869873,0.10796148329973221,-7.213327884674072
-14.538269996643066,0.10802385956048965,-7.26213264465332
-14.524452209472656,0.10808733850717545,-7.310994625091553
-14.5106201171875,0.10815193504095078,-7.359916687011719
-14.496766090393066,0.10821758210659027,-7.408894062042236
-14.48289966583252,0.1082843616604805,-7.4579339027404785
-14.469015121459961,0.10835223644971848,-7.507034778594971
-14.45511531829834,0.10842124372720718,-7.556199073791504
-14.44119930267334,0.10849136859178543,-7.605426788330078
-14.427268981933594,0.10856263339519501,-7.654720783233643
-14.413323402404785,0.10863503813743591,-7.7040815353393555
-14.399322509765625,0.10870829224586487,-7.7534894943237305
-14.385344505310059,0.10878297686576843,-7.802987098693848
-14.371354103088379,0.1088588535785675,-7.85255765914917
-14.357306480407715,0.10893557220697403,-7.9021759033203125
-14.343244552612305,0.10901346802711487,-7.951868534088135
-14.3291654586792,0.10909252613782883,-8.00163459777832
-14.31507682800293,0.10917282104492188,-8.05147933959961
-14.300973892211914,0.10925430059432983,-8.101401329040527
-14.28685474395752,0.1093369722366333,-8.15140151977539
-14.272686004638672,0.10942059010267258,-8.201461791992188
-14.258495330810547,0.10950537025928497,-8.25160026550293
-14.244294166564941,0.10959138721227646,-8.3018217086792
-14.230087280273438,0.109678715467453,-8.352133750915527
-14.215862274169922,0.10976725071668625,-8.402528762817383
-14.201582908630371,0.10985671728849411,-8.452986717224121
-14.187294006347656,0.10994748026132584,-8.50353717803955
-14.172988891601562,0.11003948748111725,-8.55417537689209
-14.158635139465332,0.11013249307870865,-8.604884147644043
-14.144268035888672,0.11022678017616272,-8.655685424804688
-14.129888534545898,0.11032236367464066,-8.706582069396973
-14.115460395812988,0.11041896790266037,-8.757553100585938
-14.101018905639648,0.11051688343286514,-8.808621406555176
-14.086565017700195,0.11061611026525497,-8.85978889465332
-14.072063446044922,0.11071639508008957,-8.911035537719727
-14.057551383972168,0.1108180359005928,-8.962386131286621
-14.042988777160645,0.11092071980237961,-9.013816833496094
-14.028414726257324,0.11102475225925446,-9.065352439880371
-14.013830184936523,0.11113017052412033,-9.116996765136719
-13.999200820922852,0.11123670637607574,-9.168728828430176
-13.984556198120117,0.1113445982336998,-9.220568656921387
-13.969868659973145,0.11145363003015518,-9.272500991821289
-13.955168724060059,0.11156405508518219,-9.324545860290527
-13.940423965454102,0.11167564243078232,-9.376684188842773
-13.92562484741211,0.1117882952094078,-9.428911209106445
-13.910825729370117,0.11190247535705566,-9.481264114379883
-13.896011352539062,0.11201806366443634,-9.533734321594238
-13.881158828735352,0.1121348962187767,-9.586309432983398
-13.866250991821289,0.11225282400846481,-9.638978004455566
-13.851303100585938,0.11237199604511261,-9.691752433776855
-13.836344718933105,0.11249265819787979,-9.744653701782227
-13.821385383605957,0.11261488497257233,-9.797691345214844
-13.806337356567383,0.1127379909157753,-9.850805282592773
-13.79128360748291,0.11286265403032303,-9.90405559539795
-13.7761869430542,0.11298857629299164,-9.957417488098145
-13.761085510253906,0.11311609297990799,-10.010920524597168
-13.745938301086426,0.11324486881494522,-10.064536094665527
-13.730711936950684,0.11337462812662125,-10.118241310119629
-13.715517044067383,0.11350631713867188,-10.172121047973633
-13.700243949890137,0.11363901942968369,-10.226093292236328
-13.684925079345703,0.11377302557229996,-10.28018569946289
-13.669605255126953,0.11390871554613113,-10.334432601928711
-13.654240608215332,0.11404574662446976,-10.388803482055664
-13.638838768005371,0.1141841784119606,-10.443306922912598
-13.623393058776855,0.11432396620512009,-10.497937202453613
-13.607909202575684,0.11446517705917358,-10.552701950073242
-13.592350959777832,0.11460751295089722,-10.607575416564941
-13.576824188232422,0.11475188285112381,-10.662640571594238
-13.561220169067383,0.11489737778902054,-10.717815399169922
-13.54557991027832,0.11504435539245605,-10.773133277893066
-13.529899597167969,0.11519278585910797,-10.828593254089355
-13.514141082763672,0.11534237861633301,-10.884167671203613
-13.49838924407959,0.11549385637044907,-10.939926147460938
-13.482597351074219,0.1156468316912651,-10.995831489562988
-13.466728210449219,0.11580100655555725,-11.051858901977539
-13.4508638381958,0.11595708876848221,-11.108073234558105
-13.434926986694336,0.11611443758010864,-11.164417266845703
-13.418951034545898,0.11627334356307983,-11.220917701721191
-13.402905464172363,0.11643356084823608,-11.277551651000977
-13.386863708496094,0.11659573763608932,-11.334383964538574
-13.370749473571777,0.11675922572612762,-11.391350746154785
-13.354598999023438,0.11692436039447784,-11.448486328125
-13.338385581970215,0.11709091067314148,-11.505770683288574
-13.322135925292969,0.11725913733243942,-11.563226699829102
-13.305853843688965,0.11742907762527466,-11.620861053466797
-13.28950309753418,0.11760043352842331,-11.678646087646484
-13.27312183380127,0.11777355521917343,-11.736614227294922
-13.256671905517578,0.11794812232255936,-11.794736862182617
-13.240194320678711,0.11812450736761093,-11.853052139282227
-13.223649024963379,0.1183023750782013,-11.911524772644043
-13.207075119018555,0.1184820830821991,-11.970194816589355
-13.190437316894531,0.11866334080696106,-12.029031753540039
-13.173736572265625,0.11884617805480957,-12.08803939819336
-13.157003402709961,0.11903085559606552,-12.147245407104492
-13.140212059020996,0.11921718716621399,-12.206631660461426
-13.123353004455566,0.1194051057100296,-12.266192436218262
-13.106472969055176,0.11959502100944519,-12.325970649719238
-13.089493751525879,0.11978627741336823,-12.385897636413574
-13.072491645812988,0.11997955292463303,-12.446046829223633
-13.055432319641113,0.12017456442117691,-12.506389617919922
-13.038310050964355,0.12037128210067749,-12.56692123413086
-13.02112865447998,0.12056975811719894,-12.627650260925293
-13.003924369812012,0.12077035009860992,-12.688613891601562
-12.986628532409668,0.12097243219614029,-12.749747276306152
-12.969276428222656,0.1211763471364975,-12.811088562011719
-12.951870918273926,0.12138213962316513,-12.872641563415527
-12.93466854095459,0.12159225344657898,-12.93466854095459
-12.91720962524414,0.12180238962173462,-12.996713638305664
-12.899706840515137,0.12201455980539322,-13.058989524841309
-12.882145881652832,0.12222865968942642,-13.121487617492676
-12.86452579498291,0.12244468182325363,-13.184207916259766
-12.84683609008789,0.12266256660223007,-13.24714469909668
-12.828951835632324,0.12288112938404083,-13.310169219970703
-12.811113357543945,0.12310267984867096,-13.373534202575684
-12.793314933776855,0.12332721054553986,-13.437238693237305
-12.775306701660156,0.12355232238769531,-13.50102424621582
-12.757222175598145,0.12377931922674179,-13.565032005310059
-12.73916244506836,0.12400922924280167,-13.629374504089355
-12.721002578735352,0.12424083054065704,-13.693921089172363
-12.702728271484375,0.12447403371334076,-13.758661270141602
