1.4317419528961182,-0.098847895860672,-0.40569040179252625
1.4419053792953491,-0.09937867522239685,-0.3990289568901062
1.452212929725647,-0.09992130100727081,-0.39230450987815857
1.462638020515442,-0.10047396272420883,-0.3855070173740387
1.473175287246704,-0.10103631019592285,-0.3786325752735138
1.4838236570358276,-0.1016082912683487,-0.37167850136756897
1.494585394859314,-0.10219008475542068,-0.3646429181098938
1.5055022239685059,-0.10278457403182983,-0.35753336548805237
1.5164952278137207,-0.10338638722896576,-0.35032832622528076
1.5276482105255127,-0.10400127619504929,-0.34304487705230713
1.53892183303833,-0.10462658107280731,-0.3356710970401764
1.5503615140914917,-0.10526543110609055,-0.32821404933929443
1.5619269609451294,-0.10591510683298111,-0.3206619322299957
1.573620080947876,-0.10657577961683273,-0.3130125105381012
1.585487723350525,-0.1072506532073021,-0.3052719831466675
1.5974427461624146,-0.10793386399745941,-0.2974205017089844
1.609622836112976,-0.10863477736711502,-0.28948092460632324
1.6218942403793335,-0.10934438556432724,-0.2814253568649292
1.6343994140625,-0.11007233709096909,-0.27327558398246765
1.6470011472702026,-0.11080942302942276,-0.2650047242641449
1.6598454713821411,-0.11156554520130157,-0.2566332221031189
1.67279052734375,-0.11233118176460266,-0.2481350302696228
1.6859374046325684,-0.11311320215463638,-0.23952226340770721
1.6992905139923096,-0.11391192674636841,-0.23079130053520203
1.7128028869628906,-0.1147242859005928,-0.2219318002462387
1.7265301942825317,-0.11555404961109161,-0.21294718980789185
1.7404769659042358,-0.11640159040689468,-0.20383353531360626
1.7545949220657349,-0.11726372689008713,-0.19458091259002686
1.7689424753189087,-0.1181444451212883,-0.1851917803287506
1.7834694385528564,-0.11904044449329376,-0.17565640807151794
1.798293113708496,-0.11995963752269745,-0.16598178446292877
1.8133052587509155,-0.12089486420154572,-0.15615251660346985
1.828508734703064,-0.12184640765190125,-0.14616478979587555
1.8440272808074951,-0.1228225901722908,-0.1360236257314682
1.8597487211227417,-0.12381601333618164,-0.1257149875164032
1.875738263130188,-0.12483112514019012,-0.11523851752281189
1.8919851779937744,-0.12586727738380432,-0.10458801686763763
1.908381700515747,-0.12691742181777954,-0.09375278651714325
1.925079345703125,-0.12799173593521118,-0.08273585140705109
1.9420021772384644,-0.12908527255058289,-0.07152817398309708
1.9592903852462769,-0.13020743429660797,-0.06012914329767227
1.976818561553955,-0.13135004043579102,-0.048528172075748444
1.9946603775024414,-0.13251806795597076,-0.03672139719128609
2.012704610824585,-0.1337042897939682,-0.024700842797756195
2.01072096824646,-0.13356496393680573,-0.012337783351540565
1.9946211576461792,-0.1324930191040039,-1.221312851495436e-16
1.9787280559539795,-0.13143979012966156,0.012141475453972816
1.9630857706069946,-0.13040809333324432,0.024091897532343864
1.9476882219314575,-0.1293974071741104,0.03585664555430412
1.9325296878814697,-0.12840725481510162,0.047440942376852036
1.9175465106964111,-0.12743328511714935,0.058848053216934204
1.9028548002243042,-0.12648312747478485,0.0700862929224968
1.8883392810821533,-0.12554901838302612,0.08115684241056442
1.874105453491211,-0.12463787198066711,0.09206889569759369
1.860029935836792,-0.12374140322208405,0.10282155126333237
1.8461641073226929,-0.12286294996738434,0.11342158913612366
1.8325021266937256,-0.1220020204782486,0.12387317419052124
1.8189892768859863,-0.12115491926670074,0.13417670130729675
1.8057242631912231,-0.12032812088727951,0.14434348046779633
1.7926008701324463,-0.11951448768377304,0.1543695628643036
1.7796765565872192,-0.11871777474880219,0.16426347196102142
1.7669024467468262,-0.11793465912342072,0.17402470111846924
1.7543199062347412,-0.11716782301664352,0.18366092443466187
1.7419154644012451,-0.1164163276553154,0.19317477941513062
1.7296373844146729,-0.115676648914814,0.20256407558918
1.7175767421722412,-0.11495481431484222,0.21184289455413818
1.7055919170379639,-0.11424129456281662,0.22099746763706207
1.693772792816162,-0.11354205012321472,0.23004190623760223
1.6821157932281494,-0.11285680532455444,0.23897933959960938
1.6706171035766602,-0.11218523234128952,0.2478126436471939
1.6591883897781372,-0.11152137815952301,0.25653162598609924
1.6479566097259521,-0.11087370663881302,0.265158474445343
1.6368335485458374,-0.1102362647652626,0.273682564496994
1.6258189678192139,-0.1096089780330658,0.28210633993148804
1.6149554252624512,-0.10899468511343002,0.2904399633407593
1.6041991710662842,-0.10839037597179413,0.298678457736969
1.5935468673706055,-0.1077958196401596,0.3068237006664276
1.5830345153808594,-0.10721338540315628,0.31488513946533203
1.5726206302642822,-0.10664025694131851,0.3228573501110077
1.5623422861099243,-0.10607890039682388,0.33075040578842163
1.5521209239959717,-0.10552395135164261,0.3385500907897949
1.5420317649841309,-0.10498049855232239,0.34627479314804077
1.5320719480514526,-0.10444832593202591,0.35392674803733826
1.5221668481826782,-0.10392231494188309,0.36149096488952637
1.512387990951538,-0.10340731590986252,0.3689863383769989
1.5026977062225342,-0.10290073603391647,0.376406192779541
1.49309504032135,-0.10240248590707779,0.3837522864341736
1.4835662841796875,-0.10191159695386887,0.39102303981781006
1.4741472005844116,-0.1014305129647255,0.3982298970222473
1.4647654294967651,-0.10095423460006714,0.40535518527030945
1.4554680585861206,-0.10048595815896988,0.4124133288860321
1.446286916732788,-0.10002788156270981,0.4194154441356659
1.4371545314788818,-0.09957532584667206,0.4263441264629364
1.4281357526779175,-0.09913276135921478,0.4332202672958374
1.4191646575927734,-0.09869560599327087,0.4400259256362915
1.4102729558944702,-0.09826602786779404,0.44677239656448364
1.4014595746994019,-0.0978439524769783,0.4534611403942108
1.3927191495895386,-0.09742900729179382,0.4600922763347626
1.3839939832687378,-0.09701710194349289,0.4666479527950287
1.3761039972305298,-0.09666582942008972,0.47341087460517883
1.3747899532318115,-0.09677963703870773,0.4824128746986389
1.3751118183135986,-0.09701299667358398,0.49202287197113037
1.3754358291625977,-0.09725119918584824,0.5016798973083496
1.3757621049880981,-0.09749429672956467,0.5113851428031921
1.3760896921157837,-0.09774228185415268,0.5211392045021057
1.3764187097549438,-0.09799521416425705,0.5309432744979858
1.376749038696289,-0.09825313091278076,0.5407984256744385
1.3770815134048462,-0.09851615130901337,0.550706148147583
1.3774163722991943,-0.09878437221050262,0.5606677532196045
1.3777527809143066,-0.09905776381492615,0.5706838965415955
1.378090500831604,-0.09933637827634811,0.5807557702064514
1.3784301280975342,-0.09962034225463867,0.5908849239349365
1.3787723779678345,-0.09990973770618439,0.6010727286338806
1.3791162967681885,-0.10020458698272705,0.6113201975822449
1.3794620037078857,-0.10050495713949203,0.6216286420822144
1.3798103332519531,-0.10081097483634949,0.6319996118545532
1.3801602125167847,-0.10112264007329941,0.6424340605735779
1.3805134296417236,-0.10144015401601791,0.652934193611145
1.3808679580688477,-0.10176344215869904,0.6635004281997681
1.3812248706817627,-0.1020926684141159,0.6741347312927246
1.3815839290618896,-0.1024278849363327,0.6848383545875549
1.3819459676742554,-0.10276922583580017,0.6956131458282471
1.382308840751648,-0.10311663895845413,0.706459641456604
1.3826756477355957,-0.10347041487693787,0.7173808217048645
1.3830443620681763,-0.10383050888776779,0.7283773422241211
1.383417010307312,-0.10419715940952301,0.7394518256187439
1.3837910890579224,-0.10457025468349457,0.7506044507026672
1.3841686248779297,-0.10495006293058395,0.7618381381034851
1.3845471143722534,-0.10533647984266281,0.7731531858444214
1.3849310874938965,-0.10572995245456696,0.7845537662506104
1.3853157758712769,-0.1061302199959755,0.7960389852523804
1.3857042789459229,-0.10653762519359589,0.8076124787330627
1.3860960006713867,-0.1069522351026535,0.8192757964134216
1.3864905834197998,-0.10737411677837372,0.8310304880142212
1.3868879079818726,-0.10780338197946548,0.8428784608840942
1.3872884511947632,-0.10824019461870193,0.8548220992088318
1.3876926898956299,-0.10868468880653381,0.8668635487556458
1.388100266456604,-0.10913699120283127,0.8790047764778137
1.3885104656219482,-0.10959714651107788,0.8912475109100342
1.3889256715774536,-0.11006547510623932,0.9035952687263489
1.3893431425094604,-0.11054190248250961,0.9160486459732056
1.3897645473480225,-0.11102669686079025,0.9286109805107117
1.390190601348877,-0.11152005195617676,0.9412850737571716
1.3906190395355225,-0.11202193051576614,0.9540718197822571
1.3910523653030396,-0.11253267526626587,0.9669753313064575
1.3914892673492432,-0.1130523532629013,0.9799972772598267
1.391930103302002,-0.11358113586902618,0.993140459060669
1.3923755884170532,-0.11411924660205841,1.0064080953598022
1.392824649810791,-0.11466675996780396,1.0198019742965698
1.3932788372039795,-0.1152239739894867,1.0333260297775269
1.3937376737594604,-0.11579102277755737,1.046982765197754
1.394200086593628,-0.11636800318956375,1.060774564743042
1.3946675062179565,-0.1169552206993103,1.0747051239013672
1.3951396942138672,-0.11755285412073135,1.088777780532837
1.395616888999939,-0.11816108971834183,1.1029953956604004
1.3960987329483032,-0.11878013610839844,1.117361307144165
1.3965858221054077,-0.11941022425889969,1.1318790912628174
1.3970777988433838,-0.1200515553355217,1.1465520858764648
1.3975752592086792,-0.12070439010858536,1.1613842248916626
1.3980783224105835,-0.12136898189783096,1.1763793230056763
-7.462218284606934,-0.49906671047210693,-0.8739272952079773
-7.409446716308594,-0.4959030747413635,-0.9138681292533875
-7.357028961181641,-0.492777019739151,-0.9532671570777893
-7.305643558502197,-0.4897337853908539,-0.9922252893447876
-7.257358551025391,-0.48691192269325256,-1.0310578346252441
-7.21368932723999,-0.4844134747982025,-1.07004976272583
-7.171406269073486,-0.48202186822891235,-1.108790636062622
-7.131176948547363,-0.4797820746898651,-1.147416114807129
-7.0936408042907715,-0.47773730754852295,-1.1860740184783936
-7.0579657554626465,-0.4758318364620209,-1.2246732711791992
-7.022882461547852,-0.4739801585674286,-1.2630228996276855
-6.988016128540039,-0.47215691208839417,-1.301066517829895
-6.953365325927734,-0.4703618884086609,-1.3388104438781738
-6.9190568923950195,-0.4686034917831421,-1.3762860298156738
-6.8849592208862305,-0.46687278151512146,-1.4134747982025146
-6.851208209991455,-0.46517884731292725,-1.4504119157791138
-6.817523956298828,-0.46350258588790894,-1.4870449304580688
-6.784171104431152,-0.46186184883117676,-1.5234365463256836
-6.752189636230469,-0.46032753586769104,-1.55983567237854
-6.721785545349121,-0.4589138627052307,-1.596319556236267
-6.693353176116943,-0.45764821767807007,-1.6330173015594482
-6.665740489959717,-0.4564521312713623,-1.6696810722351074
-6.63840913772583,-0.4552888870239258,-1.706190586090088
-6.6113362312316895,-0.45415687561035156,-1.742547631263733
-6.586008548736572,-0.453158438205719,-1.7791612148284912
-6.563249588012695,-0.45235079526901245,-1.8162957429885864
-6.540914058685303,-0.45158669352531433,-1.8533968925476074
-6.518735408782959,-0.4508478045463562,-1.8903982639312744
-6.496547222137451,-0.4501226544380188,-1.9272559881210327
-6.474426746368408,-0.44941651821136475,-1.9639958143234253
-6.452460289001465,-0.44873541593551636,-2.0006484985351562
-6.430485248565674,-0.4480680525302887,-2.037168264389038
-6.40858268737793,-0.44742003083229065,-2.0735833644866943
-6.3873796463012695,-0.4468352496623993,-2.110105276107788
-6.366965293884277,-0.4463202655315399,-2.146780490875244
-6.347957134246826,-0.4459187388420105,-2.183840751647949
-6.329209327697754,-0.44555068016052246,-2.2209153175354004
-6.311517715454102,-0.4452723562717438,-2.2582972049713135
-6.294252395629883,-0.4450397193431854,-2.295781373977661
-6.2772626876831055,-0.4448424279689789,-2.3333239555358887
-6.260246753692627,-0.44465911388397217,-2.370819330215454
-6.2432661056518555,-0.44449421763420105,-2.4082934856414795
-6.226268768310547,-0.444344162940979,-2.445730209350586
-6.20930814743042,-0.44421276450157166,-2.4831533432006836
-6.192597389221191,-0.44411540031433105,-2.520653486251831
-6.177687644958496,-0.44416379928588867,-2.558881998062134
-6.166154861450195,-0.44447264075279236,-2.5985450744628906
-6.155872344970703,-0.44489023089408875,-2.638807773590088
-6.145637035369873,-0.4453302323818207,-2.6791768074035645
-6.135342121124268,-0.4457850456237793,-2.7196099758148193
-6.1250481605529785,-0.4462592601776123,-2.7601377964019775
-6.114713191986084,-0.4467499554157257,-2.8007445335388184
-6.104386329650879,-0.44726088643074036,-2.841456890106201
-6.094033718109131,-0.44778972864151,-2.882263422012329
-6.083615303039551,-0.4483337104320526,-2.9231481552124023
-6.073199272155762,-0.448898047208786,-2.9641478061676025
-6.062751770019531,-0.4494803547859192,-3.0052497386932373
-6.05231237411499,-0.45008379220962524,-3.046478033065796
-6.041806221008301,-0.4507029950618744,-3.087799310684204
-6.031270980834961,-0.4513409435749054,-3.1292357444763184
-6.0207085609436035,-0.4519979655742645,-3.170793056488037
-6.010085105895996,-0.45267173647880554,-3.2124574184417725
-5.999255180358887,-0.4533514380455017,-3.25415301322937
-5.988137722015381,-0.45403099060058594,-3.295835494995117
-5.977057456970215,-0.45473513007164,-3.337684154510498
-5.965879917144775,-0.45545390248298645,-3.379629373550415
-5.956514835357666,-0.4563336968421936,-3.4227707386016846
-5.951430797576904,-0.45756614208221436,-3.468597412109375
-5.94704532623291,-0.4588785767555237,-3.5151028633117676
-5.942884922027588,-0.4602353572845459,-3.562028169631958
-5.939289093017578,-0.46166345477104187,-3.609591484069824
-5.93788480758667,-0.46329066157341003,-3.6588172912597656
-5.936948299407959,-0.46498435735702515,-3.708691358566284
-5.936006546020508,-0.4667082726955414,-3.758934736251831
-5.93507194519043,-0.46846383810043335,-3.809562921524048
-5.9341139793396,-0.47024911642074585,-3.8605644702911377
-5.933144569396973,-0.47206559777259827,-3.9119558334350586
-5.932188987731934,-0.47391578555107117,-3.963762044906616
-5.931207656860352,-0.47579702734947205,-4.015965461730957
-5.930230617523193,-0.47771233320236206,-4.0685954093933105
-5.9292473793029785,-0.47966137528419495,-4.1216535568237305
-5.9282379150390625,-0.4816431403160095,-4.175136089324951
-5.927238464355469,-0.48366114497184753,-4.2290778160095215
-5.926339626312256,-0.4857234060764313,-4.2835540771484375
-5.927581787109375,-0.4879986643791199,-4.340072154998779
-5.929605484008789,-0.4903775751590729,-4.397695064544678
-5.933009147644043,-0.4929113984107971,-4.456906795501709
-5.940471172332764,-0.4958261251449585,-4.519796848297119
-5.951712131500244,-0.4991038143634796,-4.586280345916748
1.3191254138946533,-0.132616326212883,-1.1664223670959473
1.319593071937561,-0.13194993138313293,-1.152485966682434
1.3200569152832031,-0.13129517436027527,-1.1386889219284058
1.3205159902572632,-0.1306517869234085,-1.1250275373458862
1.3209704160690308,-0.13001951575279236,-1.1114987134933472
1.3214207887649536,-0.1293981969356537,-1.098099946975708
1.3218672275543213,-0.12878766655921936,-1.0848283767700195
1.322308897972107,-0.1281876116991043,-1.0716805458068848
1.3227466344833374,-0.12759792804718018,-1.0586543083190918
1.3231803178787231,-0.12701837718486786,-1.0457466840744019
1.3236101865768433,-0.1264488250017166,-1.032955527305603
1.324035882949829,-0.12588904798030853,-1.0202778577804565
1.3244580030441284,-0.12533891201019287,-1.007711410522461
1.3248772621154785,-0.12479832023382187,-0.9952545166015625
1.3252923488616943,-0.12426697462797165,-0.982903778553009
1.3257033824920654,-0.12374471873044968,-0.9706568717956543
1.3261117935180664,-0.12323153018951416,-0.9585126042366028
1.326516032218933,-0.12272711843252182,-0.9464676380157471
1.3269175291061401,-0.12223143875598907,-0.9345207214355469
1.3273158073425293,-0.1217443123459816,-0.922669529914856
1.327710509300232,-0.12126556783914566,-0.9109117388725281
1.3281031847000122,-0.12079519778490067,-0.8992462754249573
1.3284916877746582,-0.12033286690711975,-0.8876697421073914
1.3288782835006714,-0.11987865716218948,-0.8761817812919617
1.329261064529419,-0.11943226307630539,-0.8647792339324951
1.3296419382095337,-0.11899371445178986,-0.8534613251686096
1.3300186395645142,-0.11856270581483841,-0.8422250151634216
1.3303935527801514,-0.11813931912183762,-0.8310699462890625
1.3307653665542603,-0.11772332340478897,-0.8199935555458069
1.331135630607605,-0.11731474101543427,-0.8089951872825623
1.3315024375915527,-0.11691328883171082,-0.7980718016624451
1.3318674564361572,-0.1165190115571022,-0.7872230410575867
1.3322296142578125,-0.11613170802593231,-0.7764465808868408
1.3325886726379395,-0.1157512441277504,-0.7657406330108643
1.332945704460144,-0.11537762731313705,-0.7551044225692749
1.3333009481430054,-0.11501076817512512,-0.7445365190505981
1.3336544036865234,-0.11465058475732803,-0.7340354919433594
1.334004521369934,-0.11429683119058609,-0.7235989570617676
1.3343539237976074,-0.11394965648651123,-0.7132270336151123
1.334700107574463,-0.11360875517129898,-0.7029169201850891
1.3350443840026855,-0.11327415704727173,-0.692668080329895
1.335386037826538,-0.11294571310281754,-0.6824787259101868
1.335726261138916,-0.112623430788517,-0.672348141670227
1.3360649347305298,-0.11230723559856415,-0.662274956703186
1.336401343345642,-0.11199697852134705,-0.6522576808929443
1.3367358446121216,-0.1116926297545433,-0.642295241355896
1.3370692729949951,-0.11139416694641113,-0.6323866844177246
1.337400197982788,-0.11110140383243561,-0.6225302815437317
1.3377299308776855,-0.11081437766551971,-0.6127253770828247
1.338057279586792,-0.11053293198347092,-0.6029703617095947
1.3383829593658447,-0.11025704443454742,-0.5932643413543701
1.3387079238891602,-0.10998673737049103,-0.5836067199707031
1.3390306234359741,-0.10972181707620621,-0.5739957094192505
1.3393522500991821,-0.10946232825517654,-0.5644307136535645
1.3396720886230469,-0.1092081293463707,-0.5549103617668152
1.3399899005889893,-0.10895916819572449,-0.545433521270752
1.3403071165084839,-0.1087154820561409,-0.5359998345375061
1.340622901916504,-0.10847695916891098,-0.5266078114509583
1.3409366607666016,-0.10824348777532578,-0.5172563195228577
1.341249704360962,-0.10801513493061066,-0.5079449415206909
1.3415608406066895,-0.10779174417257309,-0.49867215752601624
1.341870903968811,-0.10757333785295486,-0.48943737149238586
1.3421801328659058,-0.1073598638176918,-0.48023971915245056
1.342488169670105,-0.10715127736330032,-0.47107818722724915
1.3447023630142212,-0.10709943622350693,-0.4626080393791199
1.3537051677703857,-0.10759137570858002,-0.45643535256385803
1.3629902601242065,-0.10810772329568863,-0.4502711594104767
1.3724852800369263,-0.10864265263080597,-0.44408613443374634
1.3820765018463135,-0.10918715596199036,-0.4378398060798645
1.3917310237884521,-0.10973863303661346,-0.43151983618736267
1.4015188217163086,-0.11030263453722,-0.42514607310295105
1.4113713502883911,-0.11087377369403839,-0.418695330619812
1.4213612079620361,-0.11145776510238647,-0.4121871292591095
1.4314546585083008,-0.11205197870731354,-0.40560901165008545
1.441616177558899,-0.11265366524457932,-0.39894893765449524
1.4519211053848267,-0.11326873302459717,-0.3922256827354431
1.462343454360962,-0.11389516294002533,-0.38542935252189636
1.4728785753250122,-0.11453262716531754,-0.3785563111305237
1.4835251569747925,-0.11518103629350662,-0.37160369753837585
1.4942846298217773,-0.11584054678678513,-0.3645695447921753
1.5051994323730469,-0.11651445925235748,-0.35746145248413086
1.5161900520324707,-0.11719664931297302,-0.3502578139305115
1.5273407697677612,-0.11789368093013763,-0.3429758548736572
1.538612723350525,-0.11860255897045135,-0.3356036841869354
1.5500497817993164,-0.11932671815156937,-0.3281480669975281
1.5616133213043213,-0.12006320804357529,-0.3205975592136383
1.5733041763305664,-0.12081214040517807,-0.31294965744018555
1.5851696729660034,-0.1215771734714508,-0.3052107095718384
1.5971217155456543,-0.12235161662101746,-0.29736074805259705
1.6092994213104248,-0.12314615398645401,-0.28942275047302246
1.6215683221817017,-0.1239505410194397,-0.28136879205703735
1.6340713500976562,-0.12477576732635498,-0.2732207179069519
1.6466702222824097,-0.1256112903356552,-0.2649514973163605
1.6595121622085571,-0.12646842002868652,-0.25658169388771057
1.672454833984375,-0.12733635306358337,-0.24808523058891296
1.6855993270874023,-0.12822285294532776,-0.23947425186634064
1.6989498138427734,-0.12912829220294952,-0.23074504733085632
1.712459683418274,-0.13004916906356812,-0.22188733518123627
1.7261841297149658,-0.13098976016044617,-0.21290449798107147
1.7401283979415894,-0.13195054233074188,-0.20379270613193512
1.7542438507080078,-0.13292786478996277,-0.19454197585582733
1.7685879468917847,-0.1339261829853058,-0.18515466153621674
1.783111810684204,-0.13494186103343964,-0.1756211817264557
1.7979326248168945,-0.13598385453224182,-0.1659485101699829
1.8129416704177856,-0.1370439976453781,-0.15612120926380157
1.8281424045562744,-0.13812267780303955,-0.14613550901412964
1.8436583280563354,-0.13922928273677826,-0.13599640130996704
1.8593764305114746,-0.14035539329051971,-0.1256898194551468
1.8753631114959717,-0.1415061354637146,-0.1152154728770256
1.8915956020355225,-0.1426798552274704,-0.10456648468971252
1.907955527305603,-0.14386777579784393,-0.0937318429350853
1.9246485233306885,-0.14508548378944397,-0.08271734416484833
1.9415676593780518,-0.14632506668567657,-0.07151217013597488
1.9588520526885986,-0.14759710431098938,-0.06011568754911423
1.9763760566711426,-0.14889228343963623,-0.04851730912923813
1.9942137002944946,-0.15021631121635437,-0.03671317175030708
2.0122766494750977,-0.1515626609325409,-0.024695590138435364
2.010307788848877,-0.15140579640865326,-0.012335248291492462
1.9942289590835571,-0.1501920074224472,-1.2210727705944487e-16
1.9783389568328857,-0.14899808168411255,0.012139087542891502
1.962699294090271,-0.14782853424549103,0.024087153375148773
1.9473048448562622,-0.14668285846710205,0.035849589854478836
1.932148814201355,-0.1455603986978531,0.047431591898202896
1.917168378829956,-0.14445629715919495,0.058836448937654495
1.90247642993927,-0.14337897300720215,0.07007235288619995
1.8879588842391968,-0.1423197090625763,0.08114049583673477
1.8737279176712036,-0.14128686487674713,0.09205035120248795
1.8596552610397339,-0.1402706503868103,0.10280083864927292
1.8457916975021362,-0.13927480578422546,0.1133987084031105
1.8321325778961182,-0.1382988840341568,0.12384819239377975
1.818622350692749,-0.13733860850334167,0.13414964079856873
1.8053598403930664,-0.13640137016773224,0.14431434869766235
1.7922391891479492,-0.13547904789447784,0.15433840453624725
1.7793241739273071,-0.13457642495632172,0.16423094272613525
1.766559362411499,-0.13368920981884003,0.17399092018604279
1.7539796829223633,-0.1328199803829193,0.18362531065940857
1.7415770292282104,-0.13196803629398346,0.1931372582912445
1.7293013334274292,-0.13112954795360565,0.20252470672130585
1.7172428369522095,-0.1303112655878067,0.2118017077445984
1.7052603960037231,-0.12950244545936584,0.2209545075893402
1.693442940711975,-0.12870973348617554,0.22999712824821472
1.6817879676818848,-0.12793292105197906,0.2389327585697174
1.6702916622161865,-0.12717166543006897,0.24776436388492584
1.6588648557662964,-0.1264190971851349,0.2564815878868103
1.6476352214813232,-0.12568490207195282,0.265106737613678
1.6365143060684204,-0.12496230006217957,0.27362918853759766
1.6255006790161133,-0.12425112724304199,0.28205111622810364
1.6146360635757446,-0.1235545203089714,0.2903825044631958
1.6038811206817627,-0.12286943197250366,0.29861924052238464
1.5932306051254272,-0.12219543009996414,0.30676281452178955
1.582720398902893,-0.12153519690036774,0.31482264399528503
1.5723083019256592,-0.12088547646999359,0.32279321551322937
1.5620317459106445,-0.12024912238121033,0.3306846618652344
1.5518122911453247,-0.11962003260850906,0.3384827971458435
1.5417249202728271,-0.11900397390127182,0.3462059199810028
1.53176748752594,-0.11840073764324188,0.3538564145565033
1.5218639373779297,-0.11780443042516708,0.36141902208328247
1.512087106704712,-0.11722064018249512,0.368912935256958
1.5023983716964722,-0.11664636433124542,0.3763312101364136
1.4927977323532104,-0.11608156561851501,0.38367587327957153
1.4832640886306763,-0.11552458256483078,0.39094340801239014
1.4738328456878662,-0.1149781346321106,0.3981449604034424
1.4644533395767212,-0.1144382506608963,0.4052688181400299
1.455157995223999,-0.11390743404626846,0.4123254418373108
1.4459785223007202,-0.11338816583156586,0.4193260073661804
1.4368482828140259,-0.11287517100572586,0.4262532591819763
1.4278316497802734,-0.11237350851297379,0.4331279695034027
1.4188624620437622,-0.11187796294689178,0.4399322271347046
1.4099724292755127,-0.11139099299907684,0.44667717814445496
1.401160717010498,-0.11091253906488419,0.45336446166038513
1.392426609992981,-0.11044251173734665,0.4599956274032593
1.3837069272994995,-0.1099758893251419,0.46655118465423584
1.3758184909820557,-0.10957767814397812,0.473312646150589
1.3745030164718628,-0.10970655828714371,0.4823121726512909
1.3748250007629395,-0.10997110605239868,0.49192026257514954
1.3751490116119385,-0.1102411225438118,0.5015752911567688
1.3754750490188599,-0.11051668226718903,0.5112784504890442
1.375802755355835,-0.11079780012369156,0.5210304856300354
1.3761316537857056,-0.11108450591564178,0.5308325290679932
1.3764619827270508,-0.11137688905000687,0.5406857132911682
1.3767942190170288,-0.11167503893375397,0.5505912899971008
1.3771291971206665,-0.11197908967733383,0.5605508089065552
1.3774654865264893,-0.11228899657726288,0.570564866065979
1.377803087234497,-0.11260482668876648,0.5806346535682678
1.3781427145004272,-0.11292671412229538,0.5907617211341858
1.3784849643707275,-0.11325477808713913,0.6009474396705627
1.3788286447525024,-0.11358899623155594,0.6111927032470703
1.3791744709014893,-0.11392950266599655,0.6214990615844727
1.379522681236267,-0.11427639424800873,0.6318678855895996
1.3798723220825195,-0.11462967842817307,0.6423000693321228
1.3802257776260376,-0.11498962342739105,0.6527981758117676
1.3805803060531616,-0.11535610258579254,0.6633622050285339
1.3809369802474976,-0.11572927981615067,0.6739941835403442
1.381296157836914,-0.11610928922891617,0.6846956610679626
1.3816580772399902,-0.11649622768163681,0.6954681873321533
1.3820208311080933,-0.11689003556966782,0.7063124179840088
1.3823875188827515,-0.11729106307029724,0.7172313332557678
1.3827563524246216,-0.1176992729306221,0.7282256484031677
1.3831288814544678,-0.1181148886680603,0.7392978072166443
1.3835030794143677,-0.11853784322738647,0.7504482269287109
1.3838800191879272,-0.11896833777427673,0.7616793513298035
1.3842588663101196,-0.11940640211105347,0.7729921936988831
1.384642481803894,-0.11985241621732712,0.7843903303146362
1.385027289390564,-0.12030615657567978,0.79587322473526
1.3854154348373413,-0.12076796591281891,0.8074442148208618
1.3858073949813843,-0.12123797088861465,0.8191052079200745
1.3862019777297974,-0.12171620875597,0.8308574557304382
1.3865989446640015,-0.1222027987241745,0.8427028656005859
1.3869996070861816,-0.12269796431064606,0.8546440601348877
1.3874037265777588,-0.12320183962583542,0.8666830062866211
1.387811303138733,-0.12371455132961273,0.8788217902183533
1.3882215023040771,-0.12423617392778397,0.8910619616508484
1.3886364698410034,-0.12476705759763718,0.903407096862793
1.3890540599822998,-0.1253071278333664,0.9158580303192139
1.3894753456115723,-0.1258566826581955,0.9284177422523499
1.3899012804031372,-0.1264159232378006,0.9410891532897949
1.3903297185897827,-0.1269848495721817,0.953873336315155
1.3907629251480103,-0.12756381928920746,0.9667741656303406
1.3911998271942139,-0.12815292179584503,0.9797934293746948
1.391640543937683,-0.12875232100486755,0.9929338693618774
1.392086148262024,-0.1293623298406601,1.006198763847351
1.3925352096557617,-0.12998299300670624,1.0195900201797485
1.3929890394210815,-0.13061460852622986,1.0331110954284668
1.3934478759765625,-0.13125741481781006,1.0467650890350342
1.3939100503921509,-0.13191144168376923,1.0605539083480835
1.39437735080719,-0.1325770914554596,1.0744816064834595
1.3948495388031006,-0.13325455784797668,1.0885512828826904
1.395326852798462,-0.1339440643787384,1.1027661561965942
1.3958085775375366,-0.13464578986167908,1.1171290874481201
1.396295428276062,-0.13536003232002258,1.1316437721252441
1.396787405014038,-0.13608703017234802,1.1463137865066528
1.397284984588623,-0.13682709634304047,1.1611430644989014
1.3977878093719482,-0.13758043944835663,1.1761348247528076
1.3194494247436523,-0.14832444489002228,-1.1667089462280273
1.3199174404144287,-0.1475791335105896,-1.1527692079544067
1.3203812837600708,-0.14684683084487915,-1.1389687061309814
1.32084059715271,-0.14612722396850586,-1.125304102897644
1.3212950229644775,-0.14542005956172943,-1.111771821975708
1.3217452764511108,-0.14472512900829315,-1.0983695983886719
1.322191834449768,-0.14404228329658508,-1.0850948095321655
1.3226332664489746,-0.143371120095253,-1.0719434022903442
1.3230714797973633,-0.1427116096019745,-1.0589141845703125
1.323505163192749,-0.1420634239912033,-1.0460034608840942
1.3239349126815796,-0.14142638444900513,-1.033208966255188
1.3243608474731445,-0.14080031216144562,-1.0205281972885132
1.3247830867767334,-0.14018501341342926,-1.0079587697982788
1.325202226638794,-0.1395803689956665,-0.9954986572265625
1.3256174325942993,-0.13898609578609467,-0.9831448793411255
1.3260283470153809,-0.13840195536613464,-0.9708948731422424
1.3264368772506714,-0.13782797753810883,-0.9587475657463074
1.3268414735794067,-0.13726383447647095,-0.9466997981071472
1.3272426128387451,-0.13670940697193146,-0.9347497224807739
1.3276413679122925,-0.1361646205186844,-0.9228958487510681
1.3280360698699951,-0.13562916219234467,-0.9111350774765015
1.3284285068511963,-0.1351030468940735,-0.8994665741920471
1.3288171291351318,-0.13458594679832458,-0.8878872394561768
1.3292039632797241,-0.13407795131206512,-0.8763964772224426
1.3295868635177612,-0.13357868790626526,-0.8649911284446716
1.329967737197876,-0.13308818638324738,-0.8536704778671265
1.330344557762146,-0.1326061338186264,-0.8424314260482788
1.3307194709777832,-0.13213257491588593,-0.8312734961509705
1.3310915231704712,-0.1316673308610916,-0.8201945424079895
1.3314615488052368,-0.1312103122472763,-0.8091931939125061
1.3318284749984741,-0.1307613104581833,-0.7982672452926636
1.3321934938430786,-0.13032032549381256,-0.7874157428741455
1.332555890083313,-0.1298871636390686,-0.7766367197036743
1.33291494846344,-0.1294616311788559,-0.7659280896186829
1.333272099494934,-0.12904375791549683,-0.7552893161773682
1.3336273431777954,-0.12863343954086304,-0.7447187304496765
1.333980679512024,-0.12823057174682617,-0.7342150211334229
1.3343309164047241,-0.12783493101596832,-0.7237760424613953
1.3346803188323975,-0.12744662165641785,-0.7134014964103699
1.335026502609253,-0.12706533074378967,-0.7030888199806213
1.3353710174560547,-0.12669111788272858,-0.6928375363349915
1.3357126712799072,-0.12632375955581665,-0.6826456189155579
1.3360531330108643,-0.12596331536769867,-0.6725126504898071
1.336391568183899,-0.1256096363067627,-0.6624369025230408
1.3367283344268799,-0.12526266276836395,-0.6524173021316528
1.3370627164840698,-0.1249222457408905,-0.6424522399902344
1.337396264076233,-0.12458842992782593,-0.6325413584709167
1.3377271890640259,-0.12426098436117172,-0.6226824522018433
1.3380568027496338,-0.12393994629383087,-0.6128751039505005
1.3383846282958984,-0.12362519651651382,-0.603117823600769
1.3387101888656616,-0.12331662327051163,-0.5934094190597534
1.339035153388977,-0.12301428616046906,-0.5837493538856506
1.3393579721450806,-0.12271799892187119,-0.5741360783576965
1.3396797180175781,-0.12242776155471802,-0.5645686984062195
1.3399994373321533,-0.12214343994855881,-0.5550459027290344
1.3403173685073853,-0.12186498939990997,-0.5455667972564697
1.3406345844268799,-0.1215924322605133,-0.5361307263374329
1.3409504890441895,-0.12132567167282104,-0.5267364978790283
1.3412641286849976,-0.12106453627347946,-0.5173826813697815
1.341577410697937,-0.1208091452717781,-0.5080690383911133
1.341888427734375,-0.12055927515029907,-0.49879392981529236
1.3421988487243652,-0.12031501531600952,-0.4895569682121277
1.34250807762146,-0.1200762614607811,-0.4803570508956909
1.3428161144256592,-0.11984295397996902,-0.47119325399398804
1.3450199365615845,-0.11978399008512497,-0.4627172648906708
1.3540273904800415,-0.1203344315290451,-0.4565439820289612
1.3633445501327515,-0.12091457843780518,-0.45038822293281555
1.3728419542312622,-0.12151287496089935,-0.4442015290260315
1.3824360370635986,-0.1221219152212143,-0.4379537105560303
1.3920930624008179,-0.12273872643709183,-0.4316321313381195
1.4018831253051758,-0.12336951494216919,-0.425256609916687
1.411738634109497,-0.12400834262371063,-0.4188042879104614
1.4217314720153809,-0.12466154992580414,-0.41229447722435
1.4318277835845947,-0.12532617151737213,-0.4057147204875946
1.4419920444488525,-0.12599915266036987,-0.3990529477596283
1.4522995948791504,-0.12668707966804504,-0.3923279345035553
1.462724208831787,-0.12738768756389618,-0.3855297267436981
1.4732601642608643,-0.12810049951076508,-0.3786543905735016
1.4839094877243042,-0.12882572412490845,-0.3716999590396881
1.4946718215942383,-0.1295633614063263,-0.3646639883518219
1.5055896043777466,-0.13031712174415588,-0.3575541079044342
1.5165834426879883,-0.13108016550540924,-0.35034871101379395
1.5277372598648071,-0.13185977935791016,-0.3430648744106293
1.5390119552612305,-0.13265261054039001,-0.33569076657295227
1.5504525899887085,-0.13346260786056519,-0.3282333314418793
1.5620189905166626,-0.1342863291501999,-0.3206808269023895
1.5737130641937256,-0.13512401282787323,-0.31303098797798157
1.5855815410614014,-0.13597966730594635,-0.3052900433540344
1.5975369215011597,-0.13684587180614471,-0.2974380552768707
1.6097172498703003,-0.13773447275161743,-0.28949788212776184
1.6219896078109741,-0.13863417506217957,-0.28144189715385437
1.6344960927963257,-0.13955718278884888,-0.2732917368412018
1.6470987796783447,-0.14049173891544342,-0.2650204598903656
1.6599441766738892,-0.1414504200220108,-0.2566484808921814
1.6728904247283936,-0.1424211859703064,-0.24814985692501068
1.6860382556915283,-0.14341269433498383,-0.2395365983247757
1.699392557144165,-0.1444254219532013,-0.2308051735162735
1.7129063606262207,-0.14545543491840363,-0.22194521129131317
1.7266349792480469,-0.14650750160217285,-0.2129601240158081
1.740583062171936,-0.14758211374282837,-0.20384596288204193
1.7547019720077515,-0.14867520332336426,-0.19459278881549835
1.7690502405166626,-0.14979180693626404,-0.18520306050777435
1.7835776805877686,-0.15092779695987701,-0.17566706240177155
1.7984013557434082,-0.15209312736988068,-0.16599176824092865
1.8134148120880127,-0.1532789170742035,-0.15616194903850555
1.8286197185516357,-0.15448538959026337,-0.14617367088794708
1.844139814376831,-0.15572310984134674,-0.13603192567825317
1.8598625659942627,-0.1569826751947403,-0.12572269141674042
1.8758360147476196,-0.1582682579755783,-0.11524452269077301
1.8920166492462158,-0.15957631170749664,-0.10458976030349731
1.9083653688430786,-0.16090364754199982,-0.09375198185443878
1.9250612258911133,-0.16226549446582794,-0.082735076546669
1.9419834613800049,-0.16365180909633636,-0.07152748852968216
1.9592708349227905,-0.165074422955513,-0.06012854352593422
1.976798176765442,-0.16652293503284454,-0.04852767288684845
1.9946396350860596,-0.16800372302532196,-0.036721013486385345
2.012751817703247,-0.16951331496238708,-0.024701420217752457
2.0108213424682617,-0.16934117674827576,-0.012338399887084961
1.9947646856307983,-0.16798579692840576,-1.2214007311637138e-16
1.9788697957992554,-0.16665036976337433,0.012142345309257507
1.9632257223129272,-0.16534225642681122,0.024093614891171455
1.9478267431259155,-0.1640607863664627,0.03585919365286827
1.9326664209365845,-0.16280533373355865,0.04744429513812065
1.917681336402893,-0.16157038509845734,0.058852192014455795
1.9029836654663086,-0.1603652834892273,0.07009103894233704
1.8884559869766235,-0.15917998552322388,0.08116185665130615
1.8742129802703857,-0.15802408754825592,0.09207417815923691
1.8601360321044922,-0.15688744187355042,0.10282741487026215
1.846268892288208,-0.1557736098766327,0.1134280264377594
1.8326059579849243,-0.15468207001686096,0.12388020008802414
1.8190916776657104,-0.15360799431800842,0.13418425619602203
1.80582594871521,-0.15255972743034363,0.14435160160064697
1.792716145515442,-0.15152937173843384,0.1543794870376587
1.7798088788986206,-0.15052074193954468,0.16427569091320038
1.7670432329177856,-0.1495286375284195,0.1740385740995407
1.7544593811035156,-0.14855635166168213,0.18367554247379303
1.7420531511306763,-0.14760346710681915,0.1931900680065155
1.7297736406326294,-0.14666558802127838,0.2025800347328186
1.7177119255065918,-0.14575037360191345,0.2118595689535141
1.7057253122329712,-0.1448456346988678,0.22101473808288574
1.6939043998718262,-0.14395900070667267,0.23005980253219604
1.6822459697723389,-0.1430901288986206,0.23899783194065094
1.6707462072372437,-0.14223864674568176,0.247831791639328
1.6593159437179565,-0.1413968801498413,0.2565513551235199
1.648082971572876,-0.14057567715644836,0.2651787996292114
1.6369585990905762,-0.13976742327213287,0.2737034559249878
1.625941276550293,-0.1389719396829605,0.28212758898735046
1.6150718927383423,-0.13819265365600586,0.2904609143733978
1.6043086051940918,-0.13742592930793762,0.2986988425254822
1.5936521291732788,-0.13667181134223938,0.30684396624565125
1.5831390619277954,-0.13593335449695587,0.31490594148635864
1.5727238655090332,-0.13520663976669312,0.32287853956222534
1.5624444484710693,-0.1344948709011078,0.3307720422744751
1.5522221326828003,-0.1337912529706955,0.3385722041130066
1.542132019996643,-0.1331021934747696,0.34629732370376587
1.532171607017517,-0.13242745399475098,0.35394972562789917
1.522265076637268,-0.13176047801971436,0.36151430010795593
1.5124857425689697,-0.13110752403736115,0.36901018023490906
1.5027945041656494,-0.13046522438526154,0.3764304518699646
1.4931668043136597,-0.12983138859272003,0.38377073407173157
1.4836137294769287,-0.12920694053173065,0.3910355567932129
1.474179744720459,-0.1285957247018814,0.3982386589050293
1.464798092842102,-0.1279919147491455,0.4053642153739929
1.4555003643035889,-0.12739822268486023,0.4124224781990051
1.4463188648223877,-0.12681744992733002,0.41942471265792847
1.4371864795684814,-0.1262436956167221,0.4263535737991333
1.428167462348938,-0.12568260729312897,0.43322986364364624
1.419196367263794,-0.125128373503685,0.44003573060035706
1.410304307937622,-0.12458374351263046,0.44678232073783875
1.401490569114685,-0.1240486204624176,0.45347118377685547
1.3927546739578247,-0.12352295219898224,0.46010398864746094
1.3840487003326416,-0.12300246208906174,0.46666640043258667
1.3761576414108276,-0.12255704402923584,0.4734293520450592
1.374839186668396,-0.12270093709230423,0.4824301302433014
1.375161051750183,-0.12299679964780807,0.4920404851436615
1.3754850625991821,-0.12329880148172379,0.5016978979110718
1.3758114576339722,-0.12360701709985733,0.5114034414291382
1.3761390447616577,-0.12392142415046692,0.5211579203605652
1.3764681816101074,-0.12424209713935852,0.530962347984314
1.3767987489700317,-0.1245691254734993,0.5408180356025696
1.3771312236785889,-0.12490259855985641,0.550726056098938
1.377466082572937,-0.12524265050888062,0.5606879591941833
1.3778023719787598,-0.1255892515182495,0.5707044005393982
1.3781402111053467,-0.12594251334667206,0.5807767510414124
1.3784799575805664,-0.12630252540111542,0.5909062623977661
1.3788222074508667,-0.12666943669319153,0.6010944843292236
1.3791661262512207,-0.12704326212406158,0.6113423109054565
1.3795119524002075,-0.12742409110069275,0.6216511130332947
1.3798604011535645,-0.12781208753585815,0.6320225596427917
1.3802101612091064,-0.1282072216272354,0.6424573659896851
1.3805633783340454,-0.1286097764968872,0.6529578566551208
1.3809181451797485,-0.12901966273784637,0.6635245680809021
1.381274938583374,-0.12943705916404724,0.6741591691970825
1.3816344738006592,-0.12986209988594055,0.6848633289337158
1.3819962739944458,-0.13029484450817108,0.6956384778022766
1.382359266281128,-0.13073532283306122,0.706485390663147
1.3827261924743652,-0.13118386268615723,0.7174070477485657
1.3830947875976562,-0.13164038956165314,0.7284039258956909
1.3834677934646606,-0.1321052759885788,0.7394789457321167
1.383841633796692,-0.1325782835483551,0.7506319284439087
1.3842191696166992,-0.1330598145723343,0.76186603307724
1.3845981359481812,-0.133549764752388,0.773181676864624
1.3849817514419556,-0.13404859602451324,0.7845824956893921
1.385366678237915,-0.1345560997724533,0.7960682511329651
1.3857550621032715,-0.13507260382175446,0.8076421618461609
1.3861472606658936,-0.1355983018875122,0.8193060755729675
1.386541724205017,-0.13613316416740417,0.8310611248016357
1.3869389295578003,-0.13667739927768707,0.8429095149040222
1.38733971118927,-0.13723121583461761,0.854853630065918
1.3877440690994263,-0.13779479265213013,0.8668956756591797
1.38815176486969,-0.13836823403835297,0.8790373802185059
1.3885622024536133,-0.13895165920257568,0.8912806510925293
1.38897705078125,-0.13954539597034454,0.9036286473274231
1.389394998550415,-0.14014947414398193,0.9160828590393066
1.389816403388977,-0.14076411724090576,0.928645670413971
1.390242576599121,-0.1413896083831787,0.9413202404975891
1.3906711339950562,-0.1420259326696396,0.9541075825691223
1.3911044597625732,-0.14267347753047943,0.967011570930481
1.3915414810180664,-0.1433323472738266,0.9800340533256531
1.3919823169708252,-0.144002765417099,0.9931777715682983
1.3924281597137451,-0.1446850299835205,1.0064460039138794
1.392877221107483,-0.1453791856765747,1.0198403596878052
1.393331527709961,-0.14608564972877502,1.03336501121521
1.3937902450561523,-0.1468045711517334,1.0470223426818848
1.3942526578903198,-0.14753609895706177,1.0608144998550415
1.3947199583053589,-0.14828059077262878,1.0747456550598145
1.3951926231384277,-0.14903832972049713,1.0888190269470215
1.395669937133789,-0.14980949461460114,1.1030373573303223
1.3961517810821533,-0.1505943387746811,1.1174037456512451
1.3966388702392578,-0.15139319002628326,1.1319221258163452
1.3971312046051025,-0.15220633149147034,1.1465959548950195
1.3976287841796875,-0.1530340313911438,1.161428689956665
1.3981319665908813,-0.1538766324520111,1.1764243841171265
1.3191171884536743,-0.1639820635318756,-1.1664152145385742
1.3195853233337402,-0.1631581038236618,-1.1524790525436401
1.3200488090515137,-0.16234846413135529,-1.1386818885803223
1.3205080032348633,-0.16155290603637695,-1.1250207424163818
1.3209621906280518,-0.16077105700969696,-1.1114917993545532
1.3214125633239746,-0.16000279784202576,-1.098093032836914
1.3218588829040527,-0.15924784541130066,-1.0848215818405151
1.3223001956939697,-0.15850584208965302,-1.0716735124588013
1.3227380514144897,-0.15777668356895447,-1.0586473941802979
1.323171854019165,-0.15706008672714233,-1.045740008354187
1.323601484298706,-0.1563558131456375,-1.0329487323760986
1.3240272998809814,-0.1556636542081833,-1.0202711820602417
1.3244493007659912,-0.15498337149620056,-1.0077048540115356
1.3248683214187622,-0.15431490540504456,-0.9952478408813477
1.325283408164978,-0.15365788340568542,-0.982897162437439
1.32569420337677,-0.15301209688186646,-0.9706501960754395
1.3261027336120605,-0.15237754583358765,-0.9585060477256775
1.3265070915222168,-0.15175382792949677,-0.9464612007141113
1.3269081115722656,-0.15114086866378784,-0.9345141649246216
1.327306866645813,-0.1505385786294937,-0.9226633906364441
1.327701210975647,-0.14994655549526215,-0.9109053015708923
1.3280936479568481,-0.1493649184703827,-0.8992398381233215
1.3284822702407837,-0.14879325032234192,-0.8876634836196899
1.3288688659667969,-0.1482316106557846,-0.876175582408905
1.3292516469955444,-0.1476796418428421,-0.8647730350494385
1.3296324014663696,-0.1471373587846756,-0.8534552454948425
1.3300089836120605,-0.14660440385341644,-0.8422188758850098
1.3303838968276978,-0.146080881357193,-0.8310639262199402
1.3307557106018066,-0.14556649327278137,-0.8199876546859741
1.3311257362365723,-0.14506125450134277,-0.8089891672134399
1.3314926624298096,-0.14456486701965332,-0.7980659604072571
1.331857442855835,-0.14407730102539062,-0.7872171401977539
1.3322198390960693,-0.14359842240810394,-0.7764408588409424
1.3325787782669067,-0.14312796294689178,-0.7657349705696106
1.3329358100891113,-0.14266598224639893,-0.7550987601280212
1.3332908153533936,-0.14221233129501343,-0.7445308566093445
1.3336442708969116,-0.14176695048809052,-0.7340298891067505
1.3339942693710327,-0.1413295418024063,-0.7235934138298035
1.3343435525894165,-0.14090022444725037,-0.7132214903831482
1.3346898555755615,-0.14047871530056,-0.7029115557670593
1.3350343704223633,-0.140064999461174,-0.6926628351211548
1.3353757858276367,-0.1396588385105133,-0.6824734210968018
1.335715889930725,-0.13926033675670624,-0.6723428964614868
1.3360544443130493,-0.13886934518814087,-0.6622697710990906
1.3363909721374512,-0.13848571479320526,-0.6522526144981384
1.3367253541946411,-0.13810937106609344,-0.6422901749610901
1.3370589017868042,-0.1377403289079666,-0.632381796836853
1.3373894691467285,-0.1373782902956009,-0.6225252747535706
1.3377190828323364,-0.13702337443828583,-0.6127204298973083
1.3380467891693115,-0.1366753876209259,-0.6029655933380127
1.3383723497390747,-0.13633424043655396,-0.5932596325874329
1.338697075843811,-0.13599999248981476,-0.5836020112037659
1.339019775390625,-0.1356724053621292,-0.573991060256958
1.3393415212631226,-0.13535155355930328,-0.5644261837005615
1.3396612405776978,-0.13503722846508026,-0.554905891418457
1.3399790525436401,-0.13472937047481537,-0.5454291105270386
1.3402960300445557,-0.13442803919315338,-0.535995364189148
1.3406119346618652,-0.13413310050964355,-0.5266034603118896
1.3409255743026733,-0.13384442031383514,-0.5172520875930786
1.3412387371063232,-0.13356207311153412,-0.5079408288002014
1.3415498733520508,-0.13328583538532257,-0.4986680746078491
1.3418598175048828,-0.13301575183868408,-0.48943328857421875
1.3421690464019775,-0.13275180757045746,-0.4802357852458954
1.3424770832061768,-0.13249388337135315,-0.47107428312301636
1.344674825668335,-0.1324281543493271,-0.4625985324382782
1.353681206703186,-0.133036807179451,-0.4564272463321686
1.3630108833312988,-0.13367965817451477,-0.4502779543399811
1.3725061416625977,-0.13434113562107086,-0.44409286975860596
1.3820977210998535,-0.13501445949077606,-0.4378465414047241
1.3917524814605713,-0.1356963813304901,-0.4315264821052551
1.4015401601791382,-0.13639378547668457,-0.42515257000923157
1.4113937616348267,-0.13710008561611176,-0.4187019467353821
1.4213840961456299,-0.13782227039337158,-0.41219377517700195
1.4314779043197632,-0.1385570466518402,-0.40561559796333313
1.44163978099823,-0.13930107653141022,-0.39895543456077576
1.4519448280334473,-0.1400616317987442,-0.39223209023475647
1.4623668193817139,-0.1408361941576004,-0.3854355216026306
1.4728991985321045,-0.14162416756153107,-0.3785615861415863
1.4835455417633057,-0.14242592453956604,-0.37160882353782654
1.4943054914474487,-0.14324145019054413,-0.3645746409893036
1.5052205324172974,-0.14407478272914886,-0.3574664890766144
1.5162121057510376,-0.14491841197013855,-0.35026291012763977
