-1.6186349391937256,-0.22900374233722687,-1.2792528867721558
-1.60469651222229,-0.2281423807144165,-1.2843116521835327
-1.5908677577972412,-0.22729681432247162,-1.289337158203125
-1.57710599899292,-0.2264610230922699,-1.294297456741333
-1.5634632110595703,-0.22564250230789185,-1.2992370128631592
-1.5499333143234253,-0.22484050691127777,-1.3041540384292603
-1.5364766120910645,-0.2240493893623352,-1.3090174198150635
-1.5230989456176758,-0.2232700139284134,-1.3138341903686523
-1.509848952293396,-0.22250960767269135,-1.3186486959457397
-1.4966785907745361,-0.22176121175289154,-1.323421835899353
-1.483591914176941,-0.2210255265235901,-1.3281596899032593
-1.470563530921936,-0.22029881179332733,-1.3328410387039185
-1.4576514959335327,-0.21958985924720764,-1.3375208377838135
-1.4448108673095703,-0.21889197826385498,-1.3421605825424194
-1.4320337772369385,-0.2182040810585022,-1.3467549085617065
-1.4193508625030518,-0.21753089129924774,-1.3513343334197998
-1.4067368507385254,-0.21686866879463196,-1.3558775186538696
-1.394195795059204,-0.21621806919574738,-1.3603901863098145
-1.381730079650879,-0.21557959914207458,-1.3648769855499268
-1.3693952560424805,-0.21496203541755676,-1.3693952560424805
-1.357196569442749,-0.21436649560928345,-1.3739548921585083
-1.3450653553009033,-0.21378237009048462,-1.3784900903701782
-1.3329983949661255,-0.21320922672748566,-1.3829995393753052
-1.320993185043335,-0.2126467376947403,-1.3874825239181519
-1.3090474605560303,-0.21209464967250824,-1.3919386863708496
-1.2971675395965576,-0.21155409514904022,-1.396376609802246
-1.2853511571884155,-0.21102479100227356,-1.4007960557937622
-1.2735865116119385,-0.2105049341917038,-1.4051861763000488
-1.2618802785873413,-0.20999565720558167,-1.4095560312271118
-1.2502297163009644,-0.2094966620206833,-1.4139044284820557
-1.238640546798706,-0.20900897681713104,-1.418239951133728
-1.2270959615707397,-0.20852991938591003,-1.422545313835144
-1.2156084775924683,-0.20806165039539337,-1.426836609840393
-1.2041683197021484,-0.20760266482830048,-1.4311045408248901
-1.192781686782837,-0.2071540802717209,-1.4353580474853516
-1.1814475059509277,-0.20671586692333221,-1.4395979642868042
-1.1701534986495972,-0.2062859833240509,-1.443811297416687
-1.158907413482666,-0.20586584508419037,-1.4480088949203491
-1.1477078199386597,-0.20545539259910583,-1.4521914720535278
-1.1365512609481812,-0.20505404472351074,-1.4563558101654053
-1.1254379749298096,-0.2046620100736618,-1.4605045318603516
-1.1143643856048584,-0.20427870750427246,-1.4646344184875488
-1.1033378839492798,-0.2039056271314621,-1.468757152557373
-1.0966956615447998,-0.20435108244419098,-1.4787228107452393
-1.107887864112854,-0.20816268026828766,-1.51313054561615
-1.1230347156524658,-0.2127959430217743,-1.553729772567749
-1.138676404953003,-0.2176111936569214,-1.5959051847457886
-1.1552226543426514,-0.222692608833313,-1.6402901411056519
-1.1724143028259277,-0.2279973328113556,-1.6865887641906738
-1.1905291080474854,-0.23358629643917084,-1.7352701425552368
-1.2095041275024414,-0.23945532739162445,-1.786325216293335
-1.2294702529907227,-0.24563880264759064,-1.8400322198867798
-1.2504127025604248,-0.25214314460754395,-1.8964629173278809
-1.2725671529769897,-0.2590259611606598,-1.9560762643814087
-1.2959107160568237,-0.266294002532959,-2.018951654434204
-1.3204576969146729,-0.273962140083313,-2.085230588912964
-3.228055000305176,-0.4070049524307251,1.044480800628662
-3.2158756256103516,-0.4046735465526581,1.0187846422195435
-3.2038633823394775,-0.4023873507976532,0.9933892488479614
-3.1920242309570312,-0.4001466929912567,0.9682899713516235
-3.1802773475646973,-0.39794090390205383,0.9434562921524048
-3.1687095165252686,-0.395780473947525,0.9189087152481079
-3.1572349071502686,-0.3936542570590973,0.8946164846420288
-3.145927906036377,-0.3915710151195526,0.8705955147743225
-3.134701728820801,-0.389519602060318,0.8468163013458252
-3.123600959777832,-0.3875052034854889,0.8232864141464233
-3.112617254257202,-0.3855263590812683,0.7999986410140991
-3.101750373840332,-0.3835827112197876,0.7769479751586914
-3.090998888015747,-0.381673663854599,0.7541294097900391
-3.0803213119506836,-0.37979382276535034,0.7315284609794617
-3.069795608520508,-0.3779524266719818,0.7091590762138367
-3.0593414306640625,-0.37613919377326965,0.6869980692863464
-3.0489609241485596,-0.37435418367385864,0.6650422811508179
-3.038741111755371,-0.3726077079772949,0.6433064341545105
-3.0286078453063965,-0.37089040875434875,0.6217700242996216
-1.9825382232666016,-0.24248535931110382,0.39435136318206787
-1.305426001548767,-0.15947575867176056,0.25134849548339844
-1.3083115816116333,-0.15964266657829285,0.24358850717544556
-1.3112205266952515,-0.15981805324554443,0.23581506311893463
-1.3141313791275024,-0.1599992960691452,0.2280234396457672
-1.317043423652649,-0.160186305642128,0.2202128767967224
-1.3199573755264282,-0.16037920117378235,0.21238292753696442
-1.3228838443756104,-0.16057926416397095,0.20453466475009918
-1.325823426246643,-0.16078658401966095,0.19666732847690582
-1.3287643194198608,-0.16099971532821655,0.18877843022346497
-1.3317182064056396,-0.16122011840343475,0.18086901307106018
-1.334673523902893,-0.16144640743732452,0.17293672263622284
-1.337641716003418,-0.1616799384355545,0.1649823635816574
-1.3406227827072144,-0.16192077100276947,0.1570051610469818
-1.343605399131775,-0.1621675342321396,0.1490030437707901
-1.3466012477874756,-0.16242164373397827,0.14097659289836884
-1.3495986461639404,-0.16268175840377808,0.13292387127876282
-1.3526207208633423,-0.16295062005519867,0.12484637647867203
-1.3556443452835083,-0.16322551667690277,0.1167411133646965
-1.3586699962615967,-0.16350649297237396,0.1086074709892273
-1.361720323562622,-0.1637963354587555,0.10044652968645096
-1.3647723197937012,-0.1640922576189041,0.09225565195083618
-1.367837905883789,-0.1643957495689392,0.08403497189283371
-1.3709169626235962,-0.16470682621002197,0.0757836252450943
-1.3739975690841675,-0.16502408683300018,0.06750017404556274
-1.3771039247512817,-0.16535043716430664,0.059185028076171875
-1.3802123069763184,-0.1656830906867981,0.050836231559515
-1.3833341598510742,-0.16602344810962677,0.04245348274707794
-1.3864822387695312,-0.16637307405471802,0.03403623029589653
-1.389632225036621,-0.16672907769680023,0.025582918897271156
-1.3927961587905884,-0.167092964053154,0.01709303818643093
-1.3959743976593018,-0.16746479272842407,0.008565698750317097
-1.3991668224334717,-0.16784460842609406,2.570142807430863e-16
-1.4023736715316772,-0.16823247075080872,-0.008604965172708035
-1.4055949449539185,-0.16862842440605164,-0.01725011132657528
-1.4088308811187744,-0.16903255879878998,-0.025936365127563477
-1.4120819568634033,-0.1694449484348297,-0.034664664417505264
-1.4153599739074707,-0.16986708343029022,-0.04343632981181145
-1.4186402559280396,-0.1702960580587387,-0.05225161463022232
-1.421935796737671,-0.17073345184326172,-0.06111180782318115
-1.425258994102478,-0.1711808294057846,-0.07001848518848419
-1.4285980463027954,-0.17163683474063873,-0.07897220551967621
-1.4319517612457275,-0.17210139334201813,-0.08797389268875122
-1.4353214502334595,-0.17257466912269592,-0.09702461957931519
-1.4387202262878418,-0.17305836081504822,-0.10612637549638748
-1.4421212673187256,-0.17354927957057953,-0.11527828872203827
-1.4455516338348389,-0.17405074834823608,-0.12448345869779587
-1.4489978551864624,-0.17456120252609253,-0.13374195992946625
-1.4524739980697632,-0.17508243024349213,-0.14305619895458221
-1.455966591835022,-0.17561286687850952,-0.1524261236190796
-1.4594757556915283,-0.17615260183811188,-0.16185282170772552
-1.463015079498291,-0.1767033487558365,-0.1713389754295349
-1.4665577411651611,-0.17726194858551025,-0.18088264763355255
-1.4701451063156128,-0.17783348262310028,-0.19049006700515747
-1.4737492799758911,-0.17841465771198273,-0.20015913248062134
-1.4773714542388916,-0.1790057122707367,-0.2098911702632904
-1.4810106754302979,-0.1796066164970398,-0.21968719363212585
-1.4846960306167603,-0.18022097647190094,-0.22955289483070374
-1.4883850812911987,-0.18084374070167542,-0.23948319256305695
-1.4921071529388428,-0.1814785599708557,-0.24948394298553467
-1.4958609342575073,-0.18212540447711945,-0.25955650210380554
-1.4996336698532104,-0.18278278410434723,-0.2697000205516815
-1.5034394264221191,-0.1834525465965271,-0.27991849184036255
-1.5072789192199707,-0.18413487076759338,-0.29021355509757996
-1.5111379623413086,-0.18482813239097595,-0.30058401823043823
-1.515030860900879,-0.18553420901298523,-0.311034232378006
-1.5189435482025146,-0.18625149130821228,-0.32156282663345337
-1.5229054689407349,-0.18698371946811676,-0.33217760920524597
-1.5268877744674683,-0.1877274364233017,-0.34287410974502563
-1.5308903455734253,-0.18848280608654022,-0.35365375876426697
-1.53494393825531,-0.18925370275974274,-0.36452531814575195
-1.5390188694000244,-0.1900366246700287,-0.3754836320877075
-1.5431296825408936,-0.19083349406719208,-0.38653385639190674
-1.5472772121429443,-0.1916445642709732,-0.39767807722091675
-1.5514624118804932,-0.19247010350227356,-0.40891844034194946
-1.5556864738464355,-0.19331037998199463,-0.4202571213245392
-1.5599331855773926,-0.19416357576847076,-0.43169164657592773
-1.5642337799072266,-0.1950337141752243,-0.44323256611824036
-1.5685577392578125,-0.19591714441776276,-0.45487329363822937
-1.5782378911972046,-0.19748133420944214,-0.46819767355918884
-1.618693470954895,-0.20291665196418762,-0.49102529883384705
-1.6877844333648682,-0.2119763046503067,-0.5233141183853149
-1.7634354829788208,-0.22190400958061218,-0.5586537718772888
-1.8461917638778687,-0.23277460038661957,-0.5973602533340454
-1.9371883869171143,-0.24473828077316284,-0.6399605870246887
-2.039541721343994,-0.25819751620292664,-0.6876821517944336
-2.1546852588653564,-0.27334487438201904,-0.7412604689598083
-2.2844464778900146,-0.29042500257492065,-0.8016107678413391
-2.429086923599243,-0.3094854950904846,-0.8691412210464478
-2.5326709747314453,-0.32339903712272644,-0.9237727522850037
-2.537431240081787,-0.3247397840023041,-0.9431896805763245
-2.5135767459869385,-0.3224283456802368,-0.9519171118736267
-2.490079641342163,-0.3201642632484436,-0.9605297446250916
-2.4668891429901123,-0.31794100999832153,-0.9690145254135132
-2.4440550804138184,-0.3157651126384735,-0.9773976802825928
-2.421557903289795,-0.3136340081691742,-0.9856781959533691
-2.3993139266967773,-0.3115369975566864,-0.9938283562660217
-2.377316951751709,-0.3094731867313385,-1.0018503665924072
-2.355638265609741,-0.30745193362236023,-1.009779930114746
-2.3343143463134766,-0.3054780066013336,-1.01763916015625
-2.3131675720214844,-0.3035282790660858,-1.025356650352478
-2.29232120513916,-0.30161890387535095,-1.0329915285110474
-2.27170467376709,-0.29974064230918884,-1.0405172109603882
-2.2513790130615234,-0.29790160059928894,-1.0479671955108643
-2.2313292026519775,-0.2960999011993408,-1.055340051651001
-2.211437225341797,-0.29431989789009094,-1.0625849962234497
-2.1918234825134277,-0.2925776243209839,-1.0697637796401978
-2.172419548034668,-0.2908639907836914,-1.0768481492996216
-2.153317451477051,-0.28919145464897156,-1.0838888883590698
-2.134376287460327,-0.28754112124443054,-1.0908203125
-2.115635871887207,-0.2859184145927429,-1.0976663827896118
-2.097093343734741,-0.28432297706604004,-1.1044297218322754
-2.0787432193756104,-0.282754123210907,-1.1111114025115967
-2.0606448650360107,-0.2812199592590332,-1.1177476644515991
-2.0426807403564453,-0.2797045409679413,-1.124279260635376
-2.0249903202056885,-0.2782270610332489,-1.1307868957519531
-2.007401943206787,-0.2767639756202698,-1.1371791362762451
-1.9900481700897217,-0.27533361315727234,-1.1435343027114868
-1.9728509187698364,-0.2739252746105194,-1.1498117446899414
-1.9558100700378418,-0.2725389301776886,-1.1560150384902954
-1.9389443397521973,-0.2711773216724396,-1.162158489227295
-1.922289490699768,-0.26984548568725586,-1.168267846107483
-1.9057279825210571,-0.2685270309448242,-1.1742751598358154
-1.8893390893936157,-0.2672331631183624,-1.1802319288253784
-1.8731693029403687,-0.26597052812576294,-1.1861714124679565
-1.8570756912231445,-0.2647189497947693,-1.1920069456100464
-1.8411785364151,-0.2634955942630768,-1.1978180408477783
-1.825379729270935,-0.26228654384613037,-1.2035447359085083
-1.8097597360610962,-0.2611033618450165,-1.209242820739746
-1.7942934036254883,-0.25994256138801575,-1.2148993015289307
-1.7789095640182495,-0.2587939202785492,-1.2204691171646118
-1.7636879682540894,-0.257669061422348,-1.2260090112686157
-1.7485861778259277,-0.25656187534332275,-1.231493353843689
-1.7336457967758179,-0.2554785907268524,-1.2369542121887207
-1.7187869548797607,-0.25440746545791626,-1.242337942123413
-1.704086184501648,-0.25335994362831116,-1.2477021217346191
-1.6894747018814087,-0.2523258924484253,-1.2529999017715454
-1.6749752759933472,-0.25130873918533325,-1.2582499980926514
-1.6606144905090332,-0.25031256675720215,-1.2634754180908203
-1.64635169506073,-0.24933135509490967,-1.268648386001587
-1.6322085857391357,-0.24836847186088562,-1.2737880945205688
-1.6181589365005493,-0.24741999804973602,-1.2788766622543335
-1.604224443435669,-0.24648934602737427,-1.2839337587356567
-1.590399146080017,-0.2455756962299347,-1.2889573574066162
-1.5766422748565674,-0.24467280507087708,-1.2939168214797974
-1.5630027055740356,-0.24378834664821625,-1.2988543510437012
-1.5494760274887085,-0.24292173981666565,-1.3037692308425903
-1.5360236167907715,-0.24206703901290894,-1.3086315393447876
-1.522650122642517,-0.24122501909732819,-1.3134469985961914
-1.509403109550476,-0.24040330946445465,-1.3182592391967773
-1.4962369203567505,-0.23959478735923767,-1.3230313062667847
-1.4831537008285522,-0.23879988491535187,-1.3277673721313477
-1.4701290130615234,-0.23801471292972565,-1.3324472904205322
-1.4572203159332275,-0.23724865913391113,-1.337125301361084
-1.4443823099136353,-0.23649446666240692,-1.3417625427246094
-1.4316095113754272,-0.23575133085250854,-1.3463557958602905
-1.418929934501648,-0.23502393066883087,-1.35093355178833
-1.4063198566436768,-0.23430848121643066,-1.355475664138794
-1.3937819004058838,-0.23360547423362732,-1.359986424446106
-1.3813203573226929,-0.2329157292842865,-1.3644721508026123
-1.3689887523651123,-0.2322484254837036,-1.3689887523651123
-1.356793761253357,-0.23160500824451447,-1.373547077178955
-1.3446658849716187,-0.23097386956214905,-1.3780807256698608
-1.3326023817062378,-0.23035459220409393,-1.3825886249542236
-1.3206007480621338,-0.22974689304828644,-1.3870704174041748
-1.3086581230163574,-0.22915032505989075,-1.3915246725082397
-1.2967815399169922,-0.22856628894805908,-1.3959611654281616
-1.284968614578247,-0.2279943972826004,-1.4003791809082031
-1.2732073068618774,-0.22743269801139832,-1.4047678709030151
-1.2615044116973877,-0.2268824577331543,-1.409136176109314
-1.249856948852539,-0.22634324431419373,-1.4134827852249146
-1.2382713556289673,-0.22581638395786285,-1.417817234992981
-1.2267299890518188,-0.22529874742031097,-1.4221209287643433
-1.2152459621429443,-0.22479283809661865,-1.4264110326766968
-1.2038089036941528,-0.22429686784744263,-1.4306772947311401
-1.1924259662628174,-0.2238122671842575,-1.4349298477172852
-1.1810944080352783,-0.22333867847919464,-1.4391677379608154
-1.1698039770126343,-0.222874253988266,-1.4433798789978027
-1.1585614681243896,-0.22242039442062378,-1.447576642036438
-1.1473649740219116,-0.2219768911600113,-1.4517576694488525
-1.1362117528915405,-0.22154326736927032,-1.4559208154678345
-1.1251014471054077,-0.22111962735652924,-1.4600677490234375
-1.114031434059143,-0.2207055538892746,-1.4641966819763184
-1.1030075550079346,-0.22030237317085266,-1.4683175086975098
-1.0963211059570312,-0.2207743376493454,-1.4782178401947021
-1.1074355840682983,-0.2248772531747818,-1.5125130414962769
-1.1225746870040894,-0.22988221049308777,-1.5530933141708374
-1.1382091045379639,-0.2350839078426361,-1.595250129699707
-1.1547467708587646,-0.2405729591846466,-1.6396143436431885
-1.1719294786453247,-0.24630320072174072,-1.6858911514282227
-1.190034031867981,-0.2523403465747833,-1.7345486879348755
-1.208998680114746,-0.2586800456047058,-1.785578727722168
-1.2289546728134155,-0.2653595805168152,-1.8392605781555176
-1.2498859167099,-0.2723855972290039,-1.895664095878601
-1.272026538848877,-0.27981993556022644,-1.9552451372146606
-1.295357584953308,-0.28767088055610657,-2.018090009689331
-1.319891095161438,-0.2959539592266083,-2.0843358039855957
-3.229398488998413,-0.43765708804130554,1.0449154376983643
-3.2171945571899414,-0.4351474344730377,1.019202470779419
-3.205170154571533,-0.4326881170272827,0.9937944412231445
-3.193329334259033,-0.4302791357040405,0.9686858057975769
-3.181586503982544,-0.4279084801673889,0.943844735622406
-3.170022964477539,-0.4255865514278412,0.9192895889282227
-3.158545732498169,-0.42330047488212585,0.894987940788269
-3.147233724594116,-0.42106032371520996,0.8709568977355957
-3.136002540588379,-0.41885435581207275,0.8471676707267761
-3.1248955726623535,-0.41668805480003357,0.8236276507377625
-3.1139066219329834,-0.41456010937690735,0.8003300428390503
-3.103034734725952,-0.4124700129032135,0.7772697806358337
-3.0922789573669434,-0.41041719913482666,0.7544417381286621
-3.0815963745117188,-0.4083957076072693,0.7318312525749207
-3.0710649490356445,-0.4064154326915741,0.7094522714614868
-3.0606064796447754,-0.4044656753540039,0.687282145023346
-3.050218105316162,-0.4025457799434662,0.6653165221214294
-3.0399770736694336,-0.4006655514240265,0.6435680985450745
-3.02982234954834,-0.39881661534309387,0.6220192909240723
-1.9832807779312134,-0.2607364356517792,0.3944990634918213
-1.3058656454086304,-0.1714724898338318,0.2514331638813019
-1.3087519407272339,-0.1716519147157669,0.2436704933643341
-1.3116620779037476,-0.17184051871299744,0.23589447140693665
-1.3145735263824463,-0.172035351395607,0.22810013592243195
-1.3174867630004883,-0.17223647236824036,0.2202870100736618
-1.320401668548584,-0.17244386672973633,0.2124544233083725
-1.3233293294906616,-0.1726590096950531,0.20460355281829834
-1.3262693881988525,-0.1728818416595459,0.1967334747314453
-1.3292114734649658,-0.17311105132102966,0.18884196877479553
-1.3321659564971924,-0.17334797978401184,0.18092982470989227
-1.3351223468780518,-0.17359128594398499,0.17299486696720123
-1.3380913734436035,-0.17384237051010132,0.1650378257036209
-1.3410733938217163,-0.174101322889328,0.15705794095993042
-1.344057321548462,-0.17436668276786804,0.149053156375885
-1.3470537662506104,-0.17463988065719604,0.14102396368980408
-1.3500523567199707,-0.17491956055164337,0.13296855986118317
-1.3530752658843994,-0.17520862817764282,0.1248883306980133
-1.356100082397461,-0.17550422251224518,0.1167803555727005
-1.359126329421997,-0.17580628395080566,0.10864394903182983
-1.3621773719787598,-0.1761178821325302,0.10048024356365204
-1.3652305603027344,-0.17643609642982483,0.09228663146495819
-1.3682969808578491,-0.1767623871564865,0.08406317234039307
-1.3713767528533936,-0.17709682881832123,0.0758090391755104
-1.37445867061615,-0.17743797600269318,0.06752282381057739
-1.377565860748291,-0.1777888685464859,0.05920488014817238
-1.3806750774383545,-0.17814651131629944,0.05085327476263046
-1.3837980031967163,-0.17851246893405914,0.042467717081308365
-1.3869470357894897,-0.17888838052749634,0.03404763713479042
-1.3900980949401855,-0.1792711764574051,0.025591494515538216
-1.3932629823684692,-0.17966242134571075,0.017098767682909966
-1.3964420557022095,-0.1800621896982193,0.008568569086492062
-1.3996353149414062,-0.1804705411195755,2.571003339965714e-16
-1.4028433561325073,-0.1808876097202301,-0.00860784761607647
-1.4060657024383545,-0.18131335079669952,-0.017255889251828194
-1.4093022346496582,-0.18174780905246735,-0.025945041328668594
-1.4125539064407349,-0.1821911633014679,-0.03467625379562378
-1.4158333539962769,-0.18264508247375488,-0.04345085471868515
-1.419114351272583,-0.18310627341270447,-0.05226907506585121
-1.4224108457565308,-0.1835765540599823,-0.061132222414016724
-1.4257351160049438,-0.1840575933456421,-0.07004187256097794
-1.429075002670288,-0.18454787135124207,-0.07899857312440872
-1.4324297904968262,-0.18504734337329865,-0.0880032628774643
-1.435800552368164,-0.18555623292922974,-0.09705700725317001
-1.4392002820968628,-0.18607626855373383,-0.10616178810596466
-1.4426023960113525,-0.18660412728786469,-0.11531675606966019
-1.4460337162017822,-0.18714328110218048,-0.12452498078346252
-1.4494811296463013,-0.18769215047359467,-0.13378655910491943
-1.4529579877853394,-0.1882525235414505,-0.14310386776924133
-1.4564517736434937,-0.18882286548614502,-0.15247692167758942
-1.4599615335464478,-0.18940311670303345,-0.1619066745042801
-1.4635018110275269,-0.18999525904655457,-0.17139597237110138
-1.467045783996582,-0.19059590995311737,-0.1809428483247757
-1.4706337451934814,-0.19121034443378448,-0.19055339694023132
-1.4742392301559448,-0.19183526933193207,-0.20022569596767426
-1.4778618812561035,-0.19247068464756012,-0.20996084809303284
-1.481502652168274,-0.19311681389808655,-0.21976016461849213
-1.4851889610290527,-0.19377735257148743,-0.22962909936904907
-1.4888792037963867,-0.19444695115089417,-0.23956269025802612
-1.4926015138626099,-0.1951294094324112,-0.24956662952899933
-1.49635648727417,-0.19582489132881165,-0.25964248180389404
-1.500130295753479,-0.19653169810771942,-0.26978933811187744
-1.5039371252059937,-0.1972518265247345,-0.2800111472606659
-1.5077778100967407,-0.1979854553937912,-0.2903096079826355
-1.511637806892395,-0.19873084127902985,-0.30068346858024597
-1.5155317783355713,-0.1994899958372116,-0.3111370801925659
-1.5194453001022339,-0.2002611756324768,-0.3216690421104431
-1.5234081745147705,-0.20104840397834778,-0.3322872519493103
-1.5273916721343994,-0.2018480747938156,-0.3429872691631317
-1.531395435333252,-0.20266024768352509,-0.3537704646587372
-1.5354501008987427,-0.20348908007144928,-0.36464551091194153
-1.5395258665084839,-0.20433081686496735,-0.37560731172561646
-1.543637752532959,-0.20518758893013,-0.3866611123085022
-1.5477865934371948,-0.20605967938899994,-0.3978090286254883
-1.55197274684906,-0.2069472372531891,-0.40905293822288513
-1.5561978816986084,-0.20785069465637207,-0.42039525508880615
-1.5604459047317505,-0.20876803994178772,-0.43183353543281555
-1.5647473335266113,-0.20970354974269867,-0.4433780908584595
-1.5690723657608032,-0.2106533944606781,-0.45502254366874695
-1.578416347503662,-0.21228960156440735,-0.4682506322860718
-1.6183269023895264,-0.21805840730667114,-0.49091410636901855
-1.6873313188552856,-0.22778454422950745,-0.5231736302375793
-1.7629117965698242,-0.23844580352306366,-0.5584878921508789
-1.8456358909606934,-0.2501257061958313,-0.5971803665161133
-1.9367331266403198,-0.2629985809326172,-0.6398102045059204
-2.039008378982544,-0.2774546444416046,-0.6875023245811462
-2.1540071964263916,-0.29371610283851624,-0.7410271763801575
-2.283290386199951,-0.31200939416885376,-0.801205039024353
-2.427600622177124,-0.3324512839317322,-0.8686093688011169
-2.532668352127075,-0.34760963916778564,-0.9237717986106873
-2.538698196411133,-0.34922540187835693,-0.9436606168746948
-2.5148298740386963,-0.34673941135406494,-0.9523916840553284
-2.4913179874420166,-0.3443042039871216,-0.9610073566436768
-2.4681150913238525,-0.34191322326660156,-0.9694961309432983
-2.44526743888855,-0.3395729064941406,-0.977882444858551
-2.4227559566497803,-0.3372807502746582,-0.9861658811569214
-2.400496244430542,-0.33502495288848877,-0.9943181276321411
-2.378486156463623,-0.33280521631240845,-1.0023431777954102
-2.356795072555542,-0.3306313157081604,-1.0102758407592773
-2.3354594707489014,-0.3285084068775177,-1.0181384086608887
-2.3142995834350586,-0.32641130685806274,-1.0258585214614868
-2.293442487716675,-0.32435789704322815,-1.0334967374801636
-2.272813320159912,-0.32233768701553345,-1.0410250425338745
-2.252476215362549,-0.3203597962856293,-1.0484778881072998
-2.2324130535125732,-0.31842172145843506,-1.0558527708053589
-2.2125110626220703,-0.316507488489151,-1.0631009340286255
-2.192885637283325,-0.3146335482597351,-1.070282220840454
-2.173470973968506,-0.31279057264328003,-1.0773693323135376
-2.1543617248535156,-0.31099221110343933,-1.0844144821166992
-2.135409355163574,-0.3092172145843506,-1.0913482904434204
-2.11665940284729,-0.3074721097946167,-1.0981974601745605
-2.0981059074401855,-0.3057561218738556,-1.1049630641937256
-2.079747200012207,-0.30406901240348816,-1.1116480827331543
-2.0616371631622314,-0.3024187684059143,-1.118285894393921
-2.043663501739502,-0.3007890284061432,-1.1248202323913574
-2.025963544845581,-0.29919999837875366,-1.1313303709030151
-2.0083658695220947,-0.2976265251636505,-1.1377252340316772
-1.9910024404525757,-0.2960880994796753,-1.1440825462341309
-1.9737967252731323,-0.294573575258255,-1.1503630876541138
-1.9567461013793945,-0.29308250546455383,-1.1565682888031006
-1.9398715496063232,-0.29161813855171204,-1.1627142429351807
-1.923205852508545,-0.29018548130989075,-1.1688246726989746
-1.9066352844238281,-0.2887674868106842,-1.1748342514038086
-1.8902376890182495,-0.28737592697143555,-1.180793285369873
-1.874060034751892,-0.2860180735588074,-1.1867353916168213
-1.8579576015472412,-0.28467199206352234,-1.1925729513168335
-1.842052936553955,-0.2833564281463623,-1.1983869075775146
-1.8262454271316528,-0.28205606341362,-1.2041155099868774
-1.810616374015808,-0.28078344464302063,-1.2098151445388794
-1.795142412185669,-0.27953511476516724,-1.2154741287231445
-1.7797504663467407,-0.2782997786998749,-1.221045970916748
-1.7645211219787598,-0.27709004282951355,-1.226588249206543
-1.7494113445281982,-0.2758992612361908,-1.232074499130249
-1.7344635725021362,-0.2747342586517334,-1.2375376224517822
-1.7195974588394165,-0.273582398891449,-1.2429237365722656
-1.7048894166946411,-0.2724558711051941,-1.2482903003692627
-1.6902705430984497,-0.27134379744529724,-1.2535901069641113
-1.6757633686065674,-0.2702498435974121,-1.2588419914245605
-1.6613953113555908,-0.26917847990989685,-1.2640695571899414
-1.6471251249313354,-0.26812320947647095,-1.2692444324493408
-1.6329751014709473,-0.2670876979827881,-1.2743862867355347
-1.6189179420471191,-0.26606762409210205,-1.279476523399353
-1.6049764156341553,-0.2650667428970337,-1.2845356464385986
-1.5911448001861572,-0.26408424973487854,-1.2895617485046387
-1.5773801803588867,-0.2631130814552307,-1.2945224046707153
-1.5637340545654297,-0.2621619403362274,-1.299462080001831
-1.5502007007598877,-0.2612299621105194,-1.3043789863586426
-1.5367412567138672,-0.26031073927879333,-1.3092429637908936
-1.5233607292175293,-0.25940510630607605,-1.3140599727630615
-1.5101077556610107,-0.25852152705192566,-1.318874716758728
-1.4969336986541748,-0.25765177607536316,-1.3236474990844727
-1.4838448762893677,-0.25679701566696167,-1.3283860683441162
-1.470813274383545,-0.25595253705978394,-1.3330674171447754
-1.4578968286514282,-0.2551284432411194,-1.337746024131775
-1.4450528621673584,-0.25431740283966064,-1.3423854112625122
-1.432273268699646,-0.25351810455322266,-1.346980094909668
-1.41958749294281,-0.25273585319519043,-1.3515596389770508
-1.4069713354110718,-0.2519664168357849,-1.356103539466858
-1.39442777633667,-0.251210480928421,-1.360616683959961
-1.3819599151611328,-0.2504686713218689,-1.3651039600372314
-1.3696227073669434,-0.24975109100341797,-1.3696227073669434
-1.3574212789535522,-0.2490590363740921,-1.3741823434829712
-1.3452876806259155,-0.24838030338287354,-1.3787180185317993
-1.3332182168960571,-0.24771429598331451,-1.3832275867462158
-1.3212109804153442,-0.24706077575683594,-1.3877112865447998
-1.309262752532959,-0.2464192509651184,-1.392167568206787
-1.2973798513412476,-0.24579103291034698,-1.3966052532196045
-1.285561203956604,-0.24517598748207092,-1.4010249376296997
-1.2737940549850464,-0.24457187950611115,-1.4054151773452759
-1.2620854377746582,-0.24398012459278107,-1.4097851514816284
-1.2504328489303589,-0.24340033531188965,-1.41413414478302
-1.23884117603302,-0.24283361434936523,-1.4184696674346924
-1.227294683456421,-0.24227698147296906,-1.4227755069732666
-1.215805172920227,-0.24173292517662048,-1.427067518234253
-1.2043628692626953,-0.2411995828151703,-1.4313355684280396
-1.1929738521575928,-0.2406783103942871,-1.43558931350708
-1.1816374063491821,-0.24016909301280975,-1.4398293495178223
-1.17034113407135,-0.23966951668262482,-1.444042682647705
-1.1590933799743652,-0.23918145895004272,-1.4482413530349731
-1.1478917598724365,-0.23870451748371124,-1.452424168586731
-1.1367332935333252,-0.23823820054531097,-1.4565891027450562
-1.1256177425384521,-0.23778261244297028,-1.4607378244400024
-1.1145423650741577,-0.23733727633953094,-1.4648683071136475
-1.1035130023956299,-0.2369035929441452,-1.4689903259277344
-1.0967297554016113,-0.23739084601402283,-1.4787689447402954
-1.107701301574707,-0.24177046120166779,-1.5128757953643799
-1.1228419542312622,-0.2471509724855423,-1.553463101387024
-1.1384779214859009,-0.2527429461479187,-1.595626950263977
-1.1550157070159912,-0.2586434781551361,-1.6399964094161987
-1.1721972227096558,-0.2648029327392578,-1.6862763166427612
-1.1903018951416016,-0.2712925970554352,-1.7349389791488647
-1.2092660665512085,-0.2781073749065399,-1.7859736680984497
-1.2292219400405884,-0.2852875292301178,-1.83966064453125
-1.2501507997512817,-0.29283949732780457,-1.8960657119750977
-1.2722883224487305,-0.30083030462265015,-1.955647587776184
-1.2956181764602661,-0.3092693090438843,-2.018496036529541
-1.3201534748077393,-0.31817352771759033,-2.084750175476074
-3.2282261848449707,-0.4680394232273102,1.0445361137390137
-3.2160186767578125,-0.46535441279411316,1.0188299417495728
-3.2039897441864014,-0.46272310614585876,0.9934284687042236
-3.1921584606170654,-0.4601476490497589,0.9683306813240051
-3.1804251670837402,-0.45761317014694214,0.9435001611709595
-3.168867349624634,-0.45513027906417847,0.9189544916152954
-3.157392978668213,-0.45268529653549194,0.8946612477302551
-3.146084785461426,-0.4502895772457123,0.870638906955719
-3.134857416152954,-0.4479305148124695,0.8468583822250366
-3.1237542629241943,-0.4456137418746948,0.823326826095581
-3.11276912689209,-0.4433380663394928,0.800037682056427
-3.1019012928009033,-0.4411028325557709,0.7769858241081238
-3.091148614883423,-0.4389074742794037,0.7541660070419312
-3.0804696083068848,-0.4367455542087555,0.7315636277198792
-3.0699427127838135,-0.4346279203891754,0.7091930508613586
-3.0594868659973145,-0.43254268169403076,0.6870307326316833
-3.049102783203125,-0.43048954010009766,0.6650732159614563
-3.038865089416504,-0.42847874760627747,0.6433326601982117
-3.028707265853882,-0.42650049924850464,0.6217904090881348
-1.982520341873169,-0.2788311839103699,0.39434781670570374
-1.3053381443023682,-0.18336868286132812,0.2513315975666046
-1.3082233667373657,-0.1835605800151825,0.24357208609580994
-1.3111318349838257,-0.18376219272613525,0.23579910397529602
-1.314042329788208,-0.18397057056427002,0.228007972240448
-1.3169543743133545,-0.18418562412261963,0.22019797563552856
-1.3198680877685547,-0.18440741300582886,0.21236856281757355
-1.3227945566177368,-0.18463748693466187,0.20452086627483368
-1.3257331848144531,-0.1848757565021515,0.19665394723415375
-1.3286739587783813,-0.1851208359003067,0.18876560032367706
-1.331627607345581,-0.18537425994873047,0.18085670471191406
-1.3345824480056763,-0.18563438951969147,0.17292490601539612
-1.3375502824783325,-0.1859029084444046,0.16497109830379486
-1.340531349182129,-0.18617983162403107,0.15699444711208344
-1.3435134887695312,-0.18646353483200073,0.14899283647537231
-1.3465090990066528,-0.1867557317018509,0.14096693694591522
-1.3495060205459595,-0.18705475330352783,0.13291475176811218
-1.3525279760360718,-0.18736392259597778,0.12483782321214676
-1.3555511236190796,-0.1876799613237381,0.11673308163881302
-1.3585762977600098,-0.18800300359725952,0.10859999060630798
-1.361626386642456,-0.18833625316619873,0.10043960064649582
-1.364678144454956,-0.18867652118206024,0.09224928915500641
-1.3677433729171753,-0.18902546167373657,0.0840291678905487
-1.3708219528198242,-0.1893831044435501,0.07577837258577347
-1.3739023208618164,-0.1897478848695755,0.06749549508094788
-1.377008318901062,-0.19012311100959778,0.05918091908097267
-1.38011634349823,-0.19050557911396027,0.05083269625902176
-1.3832377195358276,-0.1908968985080719,0.042450521141290665
-1.3863853216171265,-0.19129885733127594,0.03403384983539581
-1.3895350694656372,-0.19170820713043213,0.025581128895282745
-1.3926986455917358,-0.1921265870332718,0.017091842368245125
-1.395876407623291,-0.19255410134792328,0.00856509804725647
-1.3990684747695923,-0.19299079477787018,2.5699622835339794e-16
-1.4022749662399292,-0.19343674182891846,-0.00860435888171196
-1.4054961204528809,-0.19389204680919647,-0.01724889874458313
-1.4087311029434204,-0.19435660541057587,-0.025934526696801186
-1.411981225013733,-0.19483068585395813,-0.034662194550037384
-1.415259599685669,-0.1953161358833313,-0.04343324899673462
-1.418539047241211,-0.19580930471420288,-0.05224788933992386
-1.4218342304229736,-0.19631221890449524,-0.061107441782951355
-1.425157070159912,-0.19682660698890686,-0.07001347839832306
-1.4284954071044922,-0.1973508596420288,-0.07896653562784195
-1.4318490028381348,-0.19788502156734467,-0.08796758204698563
-1.435218334197998,-0.1984291970729828,-0.09701765328645706
-1.4386160373687744,-0.1989852339029312,-0.10611869394779205
-1.4420167207717896,-0.19954968988895416,-0.11526993662118912
-1.4454466104507446,-0.20012624561786652,-0.1244744211435318
-1.4488927125930786,-0.20071320235729218,-0.13373224437236786
-1.4523680210113525,-0.20131243765354156,-0.14304576814174652
-1.4558602571487427,-0.20192232728004456,-0.15241499245166779
-1.4593687057495117,-0.20254285633563995,-0.16184094548225403
-1.462907314300537,-0.20317605137825012,-0.17132635414600372
-1.4664497375488281,-0.20381833612918854,-0.18086932599544525
-1.4700361490249634,-0.20447540283203125,-0.1904759705066681
-1.4736402034759521,-0.20514366030693054,-0.20014432072639465
-1.4772613048553467,-0.20582315325737,-0.20987550914287567
-1.480900526046753,-0.20651409029960632,-0.219670832157135
-1.484585165977478,-0.2072204351425171,-0.22953574359416962
-1.4882737398147583,-0.20793646574020386,-0.23946526646614075
-1.4919946193695068,-0.20866627991199493,-0.24946513772010803
-1.4957479238510132,-0.20940999686717987,-0.25953689217567444
-1.499520182609558,-0.2101658433675766,-0.26967960596084595
-1.5033255815505981,-0.21093592047691345,-0.2798972725868225
-1.5071643590927124,-0.21172042191028595,-0.29019150137901306
-1.5110222101211548,-0.21251742541790009,-0.30056101083755493
-1.514914631843567,-0.2133292555809021,-0.3110103905200958
-1.5188261270523071,-0.21415385603904724,-0.32153794169425964
-1.5227875709533691,-0.21499575674533844,-0.3321518898010254
-1.5267689228057861,-0.2158508151769638,-0.34284743666648865
-1.5307716131210327,-0.216719388961792,-0.3536263406276703
-1.5348241329193115,-0.21760566532611847,-0.3644968569278717
-1.5388978719711304,-0.21850575506687164,-0.3754540979862213
-1.5430079698562622,-0.21942195296287537,-0.3865033984184265
-1.5471551418304443,-0.22035451233386993,-0.3976466953754425
-1.5513395071029663,-0.22130365669727325,-0.40888604521751404
-1.5555628538131714,-0.22226975858211517,-0.4202237129211426
-1.5598084926605225,-0.22325067222118378,-0.4316571354866028
-1.5641083717346191,-0.22425110638141632,-0.44319701194763184
-1.5684317350387573,-0.22526684403419495,-0.45483675599098206
-1.5775997638702393,-0.22699178755283356,-0.4680083692073822
-1.6172157526016235,-0.2331206351518631,-0.49057701230049133
-1.6861395835876465,-0.2435138076543808,-0.5228041410446167
-1.7616350650787354,-0.25490668416023254,-0.5580834150314331
-1.8442987203598022,-0.2673928439617157,-0.5967477560043335
-1.9353946447372437,-0.28116375207901,-0.6393680572509766
-2.0375757217407227,-0.2966148555278778,-0.6870192885398865
-2.152439594268799,-0.3139914274215698,-0.7404878735542297
-2.281461715698242,-0.33352306485176086,-0.8005633354187012
-2.425551414489746,-0.35535913705825806,-0.8678762316703796
-2.5312230587005615,-0.3716636896133423,-0.9232446551322937
-2.537879467010498,-0.37348392605781555,-0.9433562159538269
-2.514017343521118,-0.37082505226135254,-0.9520840048789978
-2.4905130863189697,-0.36822065711021423,-0.9606969356536865
-2.4673147201538086,-0.3656631410121918,-0.9691816568374634
-2.444474220275879,-0.36316025257110596,-0.9775652289390564
-2.4219675064086914,-0.36070847511291504,-0.9858449697494507
-2.3997130393981934,-0.3582956790924072,-0.9939936399459839
-2.3777103424072266,-0.35592180490493774,-1.0020161867141724
-2.356024742126465,-0.35359665751457214,-1.0099456310272217
-2.334695339202881,-0.35132619738578796,-1.0178053379058838
-2.313542127609253,-0.34908339381217957,-1.0255227088928223
-2.292689800262451,-0.3468870520591736,-1.033157467842102
-2.272067070007324,-0.34472647309303284,-1.0406832695007324
-2.2517359256744385,-0.34261107444763184,-1.0481332540512085
-2.2316784858703613,-0.3405383229255676,-1.055505394935608
-2.2117817401885986,-0.33849087357521057,-1.0627505779266357
-2.192161798477173,-0.33648666739463806,-1.0699288845062256
-2.172752857208252,-0.3345155417919159,-1.077013373374939
-2.1536507606506348,-0.3325924277305603,-1.0840566158294678
-2.134704351425171,-0.3306940793991089,-1.090988039970398
-2.115959405899048,-0.3288276195526123,-1.0978342294692993
-2.097412347793579,-0.3269924521446228,-1.1045976877212524
-2.0790584087371826,-0.3251879811286926,-1.111279845237732
-2.0609548091888428,-0.32342320680618286,-1.1179158687591553
-2.0429859161376953,-0.3216800391674042,-1.124447226524353
-2.0252912044525146,-0.31998056173324585,-1.1309548616409302
-2.0076985359191895,-0.3182976543903351,-1.1373471021652222
-1.9903405904769897,-0.3166523873806,-1.1437022686004639
-1.9731401205062866,-0.31503257155418396,-1.1499803066253662
-1.9560937881469727,-0.31343773007392883,-1.1561827659606934
-1.9392235279083252,-0.3118714392185211,-1.1623258590698242
-1.9225634336471558,-0.3103392720222473,-1.1684342622756958
-1.9059985876083374,-0.3088228404521942,-1.174441933631897
-1.8896056413650513,-0.3073345124721527,-1.1803984642028809
-1.8734334707260132,-0.30588236451148987,-1.1863386631011963
-1.8573344945907593,-0.30444249510765076,-1.1921730041503906
-1.8414350748062134,-0.30303552746772766,-1.1979849338531494
-1.8256324529647827,-0.30164480209350586,-1.2037113904953003
-1.8100087642669678,-0.300283819437027,-1.209409236907959
-1.794539213180542,-0.2989486753940582,-1.215065836906433
-1.7791523933410645,-0.2976275086402893,-1.2206356525421143
-1.7639272212982178,-0.2963336110115051,-1.2261754274368286
-1.7488220930099487,-0.29506006836891174,-1.2316595315933228
-1.7338796854019165,-0.29381421208381653,-1.2371211051940918
-1.7190182209014893,-0.29258227348327637,-1.2425050735473633
-1.7043153047561646,-0.29137754440307617,-1.2478699684143066
-1.6897006034851074,-0.29018810391426086,-1.2531673908233643
-1.6751983165740967,-0.2890181839466095,-1.2584176063537598
-1.6608350276947021,-0.28787240386009216,-1.2636432647705078
-1.6465691328048706,-0.28674376010894775,-1.2688159942626953
-1.632423758506775,-0.285636305809021,-1.273956060409546
-1.6183708906173706,-0.28454530239105225,-1.2790441513061523
-1.6044340133666992,-0.2834748923778534,-1.2841014862060547
-1.5906065702438354,-0.28242409229278564,-1.2891254425048828
-1.5768463611602783,-0.2813854515552521,-1.2940843105316162
-1.5632045269012451,-0.2803681790828705,-1.2990220785140991
-1.549675703048706,-0.2793714702129364,-1.3039371967315674
-1.5362200736999512,-0.27838826179504395,-1.308798909187317
-1.5228441953659058,-0.277419775724411,-1.3136143684387207
-1.5095956325531006,-0.27647480368614197,-1.318427324295044
-1.4964262247085571,-0.275544673204422,-1.3231987953186035
-1.4833409786224365,-0.27463042736053467,-1.3279350996017456
-1.470313310623169,-0.2737272083759308,-1.3326143026351929
-1.4574013948440552,-0.27284589409828186,-1.3372913599014282
-1.4445607662200928,-0.27197834849357605,-1.341928243637085
-1.4317858219146729,-0.27112361788749695,-1.3465216159820557
-1.4191040992736816,-0.2702869772911072,-1.3510994911193848
-1.4064918756484985,-0.26946404576301575,-1.355641484260559
-1.3939526081085205,-0.26865559816360474,-1.3601529598236084
-1.3814890384674072,-0.2678622603416443,-1.3646388053894043
-1.3691558837890625,-0.26709485054016113,-1.3691558837890625
-1.356958270072937,-0.26635468006134033,-1.373713731765747
-1.3448288440704346,-0.26562878489494324,-1.378247618675232
-1.3327633142471313,-0.2649165391921997,-1.3827556371688843
-1.320759892463684,-0.2642175555229187,-1.387237548828125
-1.308815360069275,-0.2635314166545868,-1.3916919231414795
-1.2969367504119873,-0.262859582901001,-1.3961281776428223
-1.2851213216781616,-0.2622016966342926,-1.4005457162857056
-1.273358941078186,-0.2615557909011841,-1.4049351215362549
-1.2616541385650635,-0.2609228789806366,-1.4093033075332642
-1.250004768371582,-0.26030266284942627,-1.4136500358581543
-1.238417387008667,-0.2596966624259949,-1.4179843664169312
-1.2268742322921753,-0.2591012716293335,-1.422288179397583
-1.2153888940811157,-0.2585194706916809,-1.4265788793563843
-1.203950047492981,-0.25794899463653564,-1.430845022201538
-1.1925652027130127,-0.2573915719985962,-1.4350974559783936
-1.1812324523925781,-0.25684693455696106,-1.439335823059082
-1.1699399948120117,-0.25631269812583923,-1.4435477256774902
-1.1586956977844238,-0.2557906210422516,-1.447744369506836
-1.1474981307983398,-0.25528064370155334,-1.4519261121749878
-1.1363433599472046,-0.25478190183639526,-1.4560893774032593
-1.1252317428588867,-0.2542947232723236,-1.46023690700531
-1.1141598224639893,-0.2538183927536011,-1.4643656015396118
-1.1031343936920166,-0.25335460901260376,-1.4684863090515137
-1.0963070392608643,-0.25386494398117065,-1.4781988859176636
-1.1072007417678833,-0.25853127241134644,-1.5121921300888062
-1.1223336458206177,-0.26428458094596863,-1.5527598857879639
-1.1379612684249878,-0.2702639102935791,-1.594902753829956
-1.154489278793335,-0.27657291293144226,-1.6392487287521362
-1.1716595888137817,-0.28315863013267517,-1.6855030059814453
-1.1897543668746948,-0.290097713470459,-1.7341409921646118
-1.208707332611084,-0.29738426208496094,-1.7851483821868896
-1.2286511659622192,-0.305061399936676,-1.8388065099716187
-1.2495670318603516,-0.3131360113620758,-1.895180344581604
-1.2716916799545288,-0.3216799795627594,-1.9547303915023804
-1.2950063943862915,-0.3307028114795685,-2.017542839050293
-1.3195306062698364,-0.3402242362499237,-2.0837666988372803
-3.229804515838623,-0.49889907240867615,1.0450468063354492
-3.217582941055298,-0.49603578448295593,1.0193254947662354
-3.2055399417877197,-0.4932296872138977,0.9939090609550476
-3.1937077045440674,-0.49048519134521484,0.9688006043434143
-3.181973695755005,-0.48778438568115234,0.9439595937728882
-3.17041015625,-0.4851377606391907,0.9194018840789795
-3.1589298248291016,-0.4825315475463867,0.8950967788696289
-3.147613763809204,-0.4799775183200836,0.8710620403289795
-3.136380434036255,-0.4774627983570099,0.8472697734832764
-3.1252708435058594,-0.47499313950538635,0.8237265348434448
-3.1142795085906982,-0.47256729006767273,0.8004258871078491
-3.103405237197876,-0.4701845645904541,0.777362585067749
-3.092646837234497,-0.4678443372249603,0.7545315027236938
-3.0819625854492188,-0.46553993225097656,0.731918215751648
-3.0714292526245117,-0.46328243613243103,0.7095364332199097
-3.0609679222106934,-0.46105965971946716,0.6873633861541748
-3.0505776405334473,-0.4588710069656372,0.6653949618339539
-3.040334701538086,-0.4567275643348694,0.6436437964439392
-3.030160427093506,-0.4546171724796295,0.6220887303352356
-1.983410120010376,-0.2972036898136139,0.39452481269836426
-1.3058693408966064,-0.19544285535812378,0.2514338493347168
-1.308755874633789,-0.19564741849899292,0.2436712384223938
-1.311665654182434,-0.19586233794689178,0.23589512705802917
-1.3145769834518433,-0.1960843801498413,0.2281007468700409
-1.3174902200698853,-0.19631360471248627,0.22028757631778717
-1.3204050064086914,-0.19654998183250427,0.21245495975017548
-1.32333242893219,-0.19679516553878784,0.20460402965545654
-1.32627272605896,-0.19704918563365936,0.1967339664697647
-1.3292144536972046,-0.19731038808822632,0.18884240090847015
-1.3321691751480103,-0.1975804567337036,0.1809302568435669
-1.3351253271102905,-0.19785773754119873,0.17299525439739227
-1.3380941152572632,-0.19814389944076538,0.16503816843032837
-1.3410760164260864,-0.19843901693820953,0.1570582538843155
-1.3440594673156738,-0.1987413913011551,0.14905337989330292
-1.347056269645691,-0.1990528255701065,0.14102423191070557
-1.3500545024871826,-0.1993715614080429,0.13296876847743988
-1.3530772924423218,-0.19970102608203888,0.12488852441310883
-1.3561018705368042,-0.2000379115343094,0.11678051203489304
-1.3591282367706299,-0.20038220286369324,0.10864410549402237
-1.362179160118103,-0.2007373422384262,0.10048037767410278
-1.365232229232788,-0.20110002160072327,0.09228674322366714
-1.3682985305786133,-0.20147192478179932,0.08406326919794083
-1.3713781833648682,-0.20185308158397675,0.07580912113189697
-1.3744597434997559,-0.20224185287952423,0.06752287596464157
-1.3775672912597656,-0.20264184474945068,0.059204939752817154
-1.380676031112671,-0.2030494213104248,0.05085330829024315
-1.3837984800338745,-0.2034664899110794,0.04246773198246956
-1.386947512626648,-0.20389492809772491,0.034047648310661316
-1.390098214149475,-0.2043312042951584,0.025591498240828514
-1.3932629823684692,-0.20477710664272308,0.017098767682909966
-1.39644193649292,-0.20523275434970856,0.008568568155169487
-1.3996349573135376,-0.2056981474161148,2.571002810570122e-16
-1.4028427600860596,-0.20617346465587616,-0.008607843890786171
-1.4060649871826172,-0.20665870606899261,-0.017255879938602448
-1.409301519393921,-0.20715390145778656,-0.02594502829015255
-1.412552833557129,-0.20765917003154755,-0.03467622399330139
-1.4158319234848022,-0.20817650854587555,-0.04345081374049187
-1.419113278388977,-0.2087022215127945,-0.05226903781294823
-1.422409176826477,-0.20923814177513123,-0.06113215163350105
-1.425733208656311,-0.20978638529777527,-0.07004178315401077
-1.4290729761123657,-0.21034516394138336,-0.07899845391511917
-1.4324276447296143,-0.2109144628047943,-0.08800313621759415
-1.435798168182373,-0.21149444580078125,-0.09705684334039688
-1.439197063446045,-0.21208707988262177,-0.10616155713796616
-1.4425990581512451,-0.21268866956233978,-0.1153164803981781
-1.4460301399230957,-0.21330317854881287,-0.12452467530965805
-1.4494773149490356,-0.2139287292957306,-0.13378620147705078
-1.4529541730880737,-0.21456743776798248,-0.1431034952402115
-1.4564471244812012,-0.21521738171577454,-0.15247642993927002
-1.4599568843841553,-0.21587875485420227,-0.1619061827659607
-1.4634971618652344,-0.2165536731481552,-0.1713954210281372
-1.4670404195785522,-0.2172381728887558,-0.18094217777252197
-1.4706283807754517,-0.21793849766254425,-0.1905526965856552
-1.474233627319336,-0.2186507284641266,-0.20022492110729218
-1.4778560400009155,-0.21937493979930878,-0.20996001362800598
-1.4814962148666382,-0.22011131048202515,-0.21975921094417572
-1.485182285308838,-0.22086413204669952,-0.2296280711889267
-1.4888719320297241,-0.22162726521492004,-0.239561527967453
-1.4925941228866577,-0.2224050909280777,-0.24956537783145905
-1.4963488578796387,-0.22319775819778442,-0.259641170501709
