-1.066867765162419879e+01,-4.132548570632934570e-01,-4.499540515785751538e-01
-1.068765514126615024e+01,-4.144541919231414795e-01,-4.606418203260633781e-01
-1.070674703066383238e+01,-4.156767427921295166e-01,-4.713900731751654583e-01
-1.072594179720209517e+01,-4.169205725193023682e-01,-4.822098664873033513e-01
-1.074525768874612375e+01,-4.181884527206420898e-01,-4.930913495833233462e-01
-1.076469879723738465e+01,-4.194809496402740479e-01,-5.040349644517463368e-01
-1.078425446791061582e+01,-4.207963049411773682e-01,-5.150517708991708687e-01
-1.080392942013954638e+01,-4.221352040767669678e-01,-5.261409034221493641e-01
-1.082374314287318207e+01,-4.235005080699920654e-01,-5.372933677571456457e-01
-1.084368193126415392e+01,-4.248901009559631348e-01,-5.485213250879175106e-01
-1.086375466992616978e+01,-4.263052344322204590e-01,-5.598223872164038717e-01
-1.088395008355205285e+01,-4.277441501617431641e-01,-5.712071857413953957e-01
-1.090429774105124849e+01,-4.292112290859222412e-01,-5.826602165009315826e-01
-1.092478071802872996e+01,-4.307038187980651855e-01,-5.941961823642012419e-01
-1.094539926633638771e+01,-4.322219789028167725e-01,-6.058176387973484012e-01
-1.096617595476423190e+01,-4.337689280509948730e-01,-6.175152435178912214e-01
-1.098710390911877255e+01,-4.353436827659606934e-01,-6.292964361383823757e-01
-1.100817103432647137e+01,-4.369443058967590332e-01,-6.411721069998614908e-01
-1.102937826918928543e+01,-4.385708868503570557e-01,-6.531450107929295257e-01
-1.105084123082144387e+01,-4.402405023574829102e-01,-6.651545940465592999e-01
-1.072329213923368485e+01,-3.907197415828704834e-01,-8.666516090894678115e-01
-1.034761549589174301e+01,-3.345057666301727295e-01,-1.088528914800429348e+00
-1.034180005790459056e+01,-3.325711190700531006e-01,-1.109581879086479317e+00
-1.033605122399755416e+01,-3.306710720062255859e-01,-1.130393628832875086e+00
-1.033036754807073443e+01,-3.288049101829528809e-01,-1.150969578352502909e+00
-1.032474736992034181e+01,-3.269719481468200684e-01,-1.171315452229202192e+00
-1.031919060591233084e+01,-3.251716494560241699e-01,-1.191435818695774085e+00
-1.031369239806504723e+01,-3.234029114246368408e-01,-1.211337585000817230e+00
-1.030825502587649467e+01,-3.216655552387237549e-01,-1.231024018775519702e+00
-1.030287573230963538e+01,-3.199587762355804443e-01,-1.250500774750390676e+00
-1.029755245072266234e+01,-3.182818591594696045e-01,-1.269772839030507416e+00
-1.029228478721058693e+01,-3.166343271732330322e-01,-1.288844565744765358e+00
-1.028707148001851657e+01,-3.150155842304229736e-01,-1.307720305576883346e+00
-1.028191102008359081e+01,-3.134250640869140625e-01,-1.326404833973211073e+00
-1.027680173576773726e+01,-3.118621408939361572e-01,-1.344902630988592973e+00
-1.027174376098600028e+01,-3.103264868259429932e-01,-1.363217086734986205e+00
-1.026673416124669025e+01,-3.088172972202301025e-01,-1.381353183872288337e+00
-1.026177462870997203e+01,-3.073344528675079346e-01,-1.399313647332200983e+00
-1.025686088474293278e+01,-3.058770596981048584e-01,-1.417103814683923435e+00
-1.025199431123479066e+01,-3.044449687004089355e-01,-1.434726196755253369e+00
-1.024717263088501440e+01,-3.030375242233276367e-01,-1.452185222072331250e+00
-1.024239517616690875e+01,-3.016543686389923096e-01,-1.469484048318582925e+00
-1.023766070365021541e+01,-3.002949953079223633e-01,-1.486626535006943417e+00
-1.023296910338716970e+01,-2.989591062068939209e-01,-1.503615629162111222e+00
-1.022831885488063897e+01,-2.976461946964263916e-01,-1.520454861701441063e+00
-1.022370917611224783e+01,-2.963558733463287354e-01,-1.537147357104281520e+00
-1.021913948084290169e+01,-2.950878143310546875e-01,-1.553696420749811846e+00
-1.021460748033779709e+01,-2.938414216041564941e-01,-1.570105236635176649e+00
-1.021011452328207980e+01,-2.926166355609893799e-01,-1.586376430079849964e+00
-1.020565817324519209e+01,-2.914128601551055908e-01,-1.602513266368577494e+00
-1.020123879657071342e+01,-2.902299463748931885e-01,-1.618518334171578976e+00
-1.019685439991534359e+01,-2.890673577785491943e-01,-1.634394654910798605e+00
-1.019250549731840927e+01,-2.879248857498168945e-01,-1.650144735968854137e+00
-1.018819091520298414e+01,-2.868022322654724121e-01,-1.665771340025438141e+00
-1.018390880792152764e+01,-2.856988906860351562e-01,-1.681277407214893715e+00
-1.018205941055014740e+01,-2.849369049072265625e-01,-1.695969250845420273e+00
-1.023005008607652400e+01,-2.908677160739898682e-01,-1.696464694767729320e+00
-1.028046386030256976e+01,-2.971130907535552979e-01,-1.696875815734882664e+00
-1.033317446010108220e+01,-3.036551773548126221e-01,-1.697282791031723637e+00
-1.038835618938480465e+01,-3.105165958404541016e-01,-1.697682923027061586e+00
-1.044576041698202040e+01,-3.176633715629577637e-01,-1.698186687864963851e+00
-1.050606265110415194e+01,-3.251847922801971436e-01,-1.698666407510619925e+00
-1.056947057460612882e+01,-3.331075906753540039e-01,-1.699125837506806791e+00
-1.063564956213555668e+01,-3.413864672183990479e-01,-1.699702769629762633e+00
-1.070538969186998024e+01,-3.501253128051757812e-01,-1.700266509208606447e+00
-1.077893263925806622e+01,-3.593551814556121826e-01,-1.700829428867672632e+00
-1.085648829430400930e+01,-3.691026866436004639e-01,-1.701416776628605243e+00
-1.093792289009498298e+01,-3.793492615222930908e-01,-1.702132001345535883e+00
-1.102488082110378365e+01,-3.903105556964874268e-01,-1.702709629370423583e+00
-1.111699206857457867e+01,-4.019364714622497559e-01,-1.703326464084464087e+00
-1.121447128387926107e+01,-4.142539799213409424e-01,-1.704037558143489894e+00
-1.131757400240285172e+01,-4.272955656051635742e-01,-1.704894802422890487e+00
-1.142728889729861841e+01,-4.411897659301757812e-01,-1.705824849136102328e+00
-1.154398121703477820e+01,-4.559829831123352051e-01,-1.706887327849708758e+00
-1.166824029889524361e+01,-4.717510938644409180e-01,-1.708113021106607343e+00
-1.180085623994103194e+01,-4.885960817337036133e-01,-1.709514972167166080e+00
-1.068786622937390618e+01,-4.948227703571319580e-01,1.299755381846350311e-01
-1.067675231642876987e+01,-4.899469614028930664e-01,8.990595602472373216e-02
-1.066571085500033078e+01,-4.851575791835784912e-01,5.048636168059372764e-02
-1.065489951364733479e+01,-4.804819226264953613e-01,1.184355781303692012e-02
-1.064447139943712628e+01,-4.759459197521209717e-01,-2.590624566921695404e-02
-1.063404493805555440e+01,-4.714770019054412842e-01,-6.312007627425675338e-02
-1.062393045420132154e+01,-4.671301841735839844e-01,-9.954064083059499524e-02
-1.061389043139020316e+01,-4.628601670265197754e-01,-1.353907415009363291e-01
-1.060408969163879256e+01,-4.586949944496154785e-01,-1.705441607648467972e-01
-1.059450733515077658e+01,-4.546289741992950439e-01,-2.050353009502816626e-01
-1.058495889028489678e+01,-4.506272971630096436e-01,-2.390315987787956509e-01
-1.057565710358266386e+01,-4.467263817787170410e-01,-2.723708387068151104e-01
-1.056646768580490736e+01,-4.429006874561309814e-01,-3.051766739987313848e-01
-1.055753047646723175e+01,-4.391732811927795410e-01,-3.373503958452119811e-01
-1.054907447084143080e+01,-4.355825483798980713e-01,-3.687285432239160166e-01
-1.055606281070124020e+01,-4.347318410873413086e-01,-3.878040567342369016e-01
-1.057447350750915049e+01,-4.358853101730346680e-01,-3.980948448862169364e-01
-1.059290990188837611e+01,-4.370487928390502930e-01,-4.084956098544676451e-01
-1.061145980545386713e+01,-4.382374882698059082e-01,-4.189419543352808084e-01
-1.063011149636601793e+01,-4.394491910934448242e-01,-4.294456216401383308e-01
-1.064886729421725953e+01,-4.406842887401580811e-01,-4.400080292087729106e-01
-1.066772779433452101e+01,-4.419427514076232910e-01,-4.506318321195545984e-01
-1.068669866867420026e+01,-4.432254135608673096e-01,-4.613154481600765244e-01
-1.070578317108677169e+01,-4.445327520370483398e-01,-4.720600692318930314e-01
-1.072497150322259074e+01,-4.458629786968231201e-01,-4.828755140577873917e-01
-1.074428036958116550e+01,-4.472188949584960938e-01,-4.937529738179664562e-01
-1.076371497726183435e+01,-4.486011862754821777e-01,-5.046924691834990817e-01
-1.078326280298324491e+01,-4.500077664852142334e-01,-5.157055110373351958e-01
-1.080293132080973173e+01,-4.514397084712982178e-01,-5.267902950740697143e-01
-1.082273808476606725e+01,-4.528998434543609619e-01,-5.379385070898718979e-01
-1.084267027617939405e+01,-4.543860256671905518e-01,-5.491618205428938637e-01
-1.086273516988958932e+01,-4.558993279933929443e-01,-5.604591180777918069e-01
-1.088292369114632230e+01,-4.574381709098815918e-01,-5.718394353002356212e-01
-1.090326527604273465e+01,-4.590072631835937500e-01,-5.832877260149724741e-01
-1.092373929291052548e+01,-4.606032669544219971e-01,-5.948203486021070852e-01
-1.094435160604019686e+01,-4.622270166873931885e-01,-6.064367695989485441e-01
-1.096511874357534211e+01,-4.638810753822326660e-01,-6.181313561937598067e-01
-1.098603448851363318e+01,-4.655643701553344727e-01,-6.299109938653337792e-01
-1.100708113334293081e+01,-4.672740697860717773e-01,-6.417896618835454703e-01
-1.102827547183943580e+01,-4.690127968788146973e-01,-6.537608115032411682e-01
-1.104972937719485770e+01,-4.707981348037719727e-01,-6.657665271058763601e-01
-1.072233743169053177e+01,-4.178456366062164307e-01,-8.671693559841351373e-01
-1.034683902626450624e+01,-3.577357828617095947e-01,-1.088943946123974937e+00
-1.034102523704688181e+01,-3.556666970252990723e-01,-1.109989941297189198e+00
-1.033527787100953965e+01,-3.536346256732940674e-01,-1.130794917710027159e+00
-1.032959466228622425e+01,-3.516386747360229492e-01,-1.151364548417625588e+00
-1.032397650958446356e+01,-3.496784269809722900e-01,-1.171703438302040157e+00
-1.031842003188012669e+01,-3.477528691291809082e-01,-1.191817681735861001e+00
-1.031292493143527089e+01,-3.458614945411682129e-01,-1.211712157222842645e+00
-1.030748851762100671e+01,-3.440033495426177979e-01,-1.231392290510143095e+00
-1.030210959164542217e+01,-3.421778082847595215e-01,-1.250863071148015537e+00
-1.029678808819910074e+01,-3.403844535350799561e-01,-1.270128576198478854e+00
-1.029152146434891080e+01,-3.386223912239074707e-01,-1.289194150121087512e+00
-1.028630945900616034e+01,-3.368911743164062500e-01,-1.308063689078031500e+00
-1.028114985783329338e+01,-3.351900577545166016e-01,-1.326742260461987621e+00
-1.027604246614976802e+01,-3.335186243057250977e-01,-1.345233531451792253e+00
-1.027098587450494982e+01,-3.318762779235839844e-01,-1.363541934018763779e+00
-1.026597792008998589e+01,-3.302622437477111816e-01,-1.381671929893119488e+00
-1.026101865553231463e+01,-3.286762535572052002e-01,-1.399626761491064020e+00
-1.025610681907705590e+01,-3.271176815032958984e-01,-1.417410779496315332e+00
-1.025124148101007826e+01,-3.255860805511474609e-01,-1.435027189675824655e+00
-1.024642096969331462e+01,-3.240808248519897461e-01,-1.452480472084435537e+00
-1.024164427412504175e+01,-3.226014971733093262e-01,-1.469773684793346025e+00
-1.023691193810347855e+01,-3.211477994918823242e-01,-1.486910088543387243e+00
-1.023222176906087810e+01,-3.197190761566162109e-01,-1.503893391706563110e+00
-1.022757168892116475e+01,-3.183148205280303955e-01,-1.520727335858955254e+00
-1.022296352266081776e+01,-3.169348835945129395e-01,-1.537414187965556733e+00
-1.021839470103297920e+01,-3.155786693096160889e-01,-1.553957671277821806e+00
-1.021386403213609206e+01,-3.142457008361816406e-01,-1.570361039646225088e+00
-1.020937243989266463e+01,-3.129358291625976562e-01,-1.586626671082260076e+00
-1.020491678259745782e+01,-3.116483688354492188e-01,-1.602758122817000030e+00
-1.020049899971862217e+01,-3.103832900524139404e-01,-1.618757695019515053e+00
-1.019611619685889714e+01,-3.091399669647216797e-01,-1.634628520158248222e+00
-1.019176818278292096e+01,-3.079181015491485596e-01,-1.650373397562145072e+00
-1.018745452239252813e+01,-3.067174255847930908e-01,-1.665994683472893367e+00
-1.018317345132778051e+01,-3.055374026298522949e-01,-1.681495465720589166e+00
-1.018120554743572548e+01,-3.047053813934326172e-01,-1.696216739261712902e+00
-1.022915713072138288e+01,-3.110448122024536133e-01,-1.696717726421134609e+00
-1.027950879973070286e+01,-3.177174925804138184e-01,-1.697140128692019356e+00
-1.033218842710971686e+01,-3.247121274471282959e-01,-1.697549044257815165e+00
-1.038734287292258252e+01,-3.320488333702087402e-01,-1.697949952181975863e+00
-1.044471883470737517e+01,-3.396907150745391846e-01,-1.698454456299446358e+00
-1.050499136270880918e+01,-3.477332293987274170e-01,-1.698934745759112852e+00
-1.056836971290639049e+01,-3.562051653861999512e-01,-1.699394287602603804e+00
-1.063451620986562318e+01,-3.650575578212738037e-01,-1.699971974983314205e+00
-1.070421657418997796e+01,-3.744010627269744873e-01,-1.700537587175257048e+00
-1.077772129953367219e+01,-3.842701017856597900e-01,-1.701101337588060147e+00
-1.085523879894337718e+01,-3.946928977966308594e-01,-1.701689287119375837e+00
-1.093664015769629927e+01,-4.056503474712371826e-01,-1.702403561153180256e+00
-1.102363155377673465e+01,-4.173817932605743408e-01,-1.702965946104799899e+00
-1.111572677241277596e+01,-4.298172295093536377e-01,-1.703578132248209753e+00
-1.121316298678154055e+01,-4.429888129234313965e-01,-1.704289415847995315e+00
-1.131622283718551714e+01,-4.569349884986877441e-01,-1.705146391701449105e+00
-1.142588877068781628e+01,-4.717924594879150391e-01,-1.706076637043251631e+00
-1.154252862442687544e+01,-4.876112341880798340e-01,-1.707139415096413870e+00
-1.062537406995667588e+01,-4.979667663574218750e-01,-9.829533815763591420e-02
-1.061533189906718810e+01,-4.934155046939849854e-01,-1.341626893231828710e-01
-1.060552812506289300e+01,-4.889758825302124023e-01,-1.693338468079046422e-01
-1.059593951477433116e+01,-4.846412539482116699e-01,-2.038452668995818229e-01
-1.058638136757688741e+01,-4.803746044635772705e-01,-2.378643199116181606e-01
-1.057707245922422068e+01,-4.762158095836639404e-01,-2.712238363007024589e-01
-1.056787605261232876e+01,-4.721372127532958984e-01,-3.040494900869763484e-01
-1.055893085377432961e+01,-4.681632518768310547e-01,-3.362434849493438627e-01
-1.055045028461855772e+01,-4.643317461013793945e-01,-3.676549721255719660e-01
-1.055723733164844624e+01,-4.633868634700775146e-01,-3.868990018158364741e-01
-1.057566659223515160e+01,-4.646181762218475342e-01,-3.971869817000062142e-01
-1.059414278427875011e+01,-4.658640623092651367e-01,-4.075694993989342763e-01
-1.061270545139425003e+01,-4.671317934989929199e-01,-4.180180560198270001e-01
-1.063136548641809398e+01,-4.684232771396636963e-01,-4.285276186217861216e-01
-1.065012999018068918e+01,-4.697397053241729736e-01,-4.390955299289660552e-01
-1.066900205395730694e+01,-4.710815846920013428e-01,-4.497226864514169975e-01
-1.068798578801404098e+01,-4.724494218826293945e-01,-4.604090390068771299e-01
-1.070708219756099844e+01,-4.738434255123138428e-01,-4.711571133025915792e-01
-1.072628118885703330e+01,-4.752616286277770996e-01,-4.819768906365431427e-01
-1.074560248672485407e+01,-4.767074584960937500e-01,-4.928577074535702707e-01
-1.076504791614093470e+01,-4.781811237335205078e-01,-5.038018307186660216e-01
-1.078460810696344119e+01,-4.796809256076812744e-01,-5.148184586127029227e-01
-1.080428892348287206e+01,-4.812077581882476807e-01,-5.259070576729918400e-01
-1.082410673815797431e+01,-4.827643930912017822e-01,-5.370599639965090155e-01
-1.084405139083944647e+01,-4.843489825725555420e-01,-5.482873878645908583e-01
-1.086412845042628206e+01,-4.859624505043029785e-01,-5.595889583897508679e-01
-1.088432861318479539e+01,-4.876030683517456055e-01,-5.709736447695061834e-01
-1.090468111598367074e+01,-4.892758131027221680e-01,-5.824270877586652517e-01
-1.092516805208631503e+01,-4.909775257110595703e-01,-5.939639535771630285e-01
-1.094579262725967439e+01,-4.927086532115936279e-01,-6.055851719391260879e-01
-1.096655682905542584e+01,-4.944695234298706055e-01,-6.172933052010534105e-01
-1.098744794185811990e+01,-4.962578713893890381e-01,-6.290988154961776324e-01
-1.100848853445776676e+01,-4.980775415897369385e-01,-6.409923605420169146e-01
-1.102968515809492622e+01,-4.999296069145202637e-01,-6.529736061003390546e-01
-1.072366747188937453e+01,-4.454005062580108643e-01,-8.664479230327657433e-01
-1.034806702232995512e+01,-3.813409805297851562e-01,-1.088287623591128073e+00
-1.034224832125553206e+01,-3.791350722312927246e-01,-1.109345847603955049e+00
-1.033649729133556683e+01,-3.769688010215759277e-01,-1.130162173572244910e+00
-1.033081023782979813e+01,-3.748410344123840332e-01,-1.150743349614573585e+00
-1.032518760147904935e+01,-3.727512061595916748e-01,-1.171093847796691900e+00
-1.031962796938749882e+01,-3.706985712051391602e-01,-1.191218967939808637e+00
-1.031412700794835580e+01,-3.686818778514862061e-01,-1.211125521125472559e+00
-1.030868694857609213e+01,-3.667010068893432617e-01,-1.230816512797442197e+00
-1.030330544411685523e+01,-3.647550940513610840e-01,-1.250297468315100913e+00
-1.029797936085449805e+01,-3.628430962562561035e-01,-1.269574057288408220e+00
-1.029270907656686163e+01,-3.609646558761596680e-01,-1.288650112916580159e+00
-1.028749282000365461e+01,-3.591189682483673096e-01,-1.307530458729490475e+00
-1.028233044456785628e+01,-3.573056161403656006e-01,-1.326219024093404197e+00
-1.027721890127610394e+01,-3.555236756801605225e-01,-1.344720758464144295e+00
-1.027215863431439047e+01,-3.537727892398834229e-01,-1.363039266057572085e+00
-1.026714692329493062e+01,-3.520521223545074463e-01,-1.381179219262631541e+00
-1.026218468869505251e+01,-3.503614068031311035e-01,-1.399143863940705002e+00
-1.025726945743495477e+01,-3.486998975276947021e-01,-1.416937447718104925e+00
-1.025240021506772869e+01,-3.470670282840728760e-01,-1.434563896515918868e+00
-1.024757567007959125e+01,-3.454622328281402588e-01,-1.452026807659652086e+00
-1.024279680935602421e+01,-3.438853621482849121e-01,-1.469329198027333083e+00
-1.023806088275034654e+01,-3.423355519771575928e-01,-1.486474986649694019e+00
-1.023336656554469393e+01,-3.408123552799224854e-01,-1.503467885343916732e+00
-1.022871404318281385e+01,-3.393154144287109375e-01,-1.520310678559497974e+00
-1.022410261493393158e+01,-3.378443121910095215e-01,-1.537006638471540843e+00
-1.021953030233420279e+01,-3.363984823226928711e-01,-1.553559163181094771e+00
-1.021499670004436311e+01,-3.349774777889251709e-01,-1.569971362288061112e+00
-1.021050205991630477e+01,-3.335810899734497070e-01,-1.586245791258582560e+00
-1.020604443669026296e+01,-3.322087228298187256e-01,-1.602385733702032633e+00
-1.020162232819372505e+01,-3.308598995208740234e-01,-1.618394229364982673e+00
-1.019723654385752099e+01,-3.295344412326812744e-01,-1.634273623054848468e+00
-1.019288587690064851e+01,-3.282319009304046631e-01,-1.650026791942999616e+00
-1.018856900605042526e+01,-3.269518613815307617e-01,-1.665656579996729336e+00
-1.018428554429221045e+01,-3.256939649581909180e-01,-1.681165605645155159e+00
-1.018207895212659153e+01,-3.247706890106201172e-01,-1.695963498998089625e+00
-1.023002333262317798e+01,-3.315235078334808350e-01,-1.696472202836940557e+00
-1.028033697976233540e+01,-3.386266231536865234e-01,-1.696911009076048193e+00
-1.033299483290272391e+01,-3.460752665996551514e-01,-1.697331235052635279e+00
-1.038814627437056792e+01,-3.538912236690521240e-01,-1.697738222469936664e+00
-1.044553614806731012e+01,-3.620349168777465820e-01,-1.698244402918356766e+00
-1.050582225938511449e+01,-3.706053793430328369e-01,-1.698726645775851418e+00
-1.056921599500699926e+01,-3.796335756778717041e-01,-1.699187918924172092e+00
-1.063537787739053364e+01,-3.890672326087951660e-01,-1.699767337609712436e+00
-1.070508634885413457e+01,-3.990229368209838867e-01,-1.700336666311719203e+00
-1.077860685118068673e+01,-4.095396995544433594e-01,-1.700902509829009812e+00
-1.085613927460280692e+01,-4.206463694572448730e-01,-1.701492925698741221e+00
-1.093758807205458439e+01,-4.323275387287139893e-01,-1.702202835863980246e+00
-1.102478636033064419e+01,-4.448572099208831787e-01,-1.702728904122531306e+00
-1.111691170295965669e+01,-4.581103920936584473e-01,-1.703342503459689627e+00
-1.121438033460011141e+01,-4.721482098102569580e-01,-1.704054996484853701e+00
-1.131747872875370220e+01,-4.870122075080871582e-01,-1.704912600217471041e+00
-1.055800263481570056e+01,-4.967972040176391602e-01,-3.369771894042030702e-01
-1.054951288800115883e+01,-4.927289485931396484e-01,-3.683865114251401174e-01
-1.055619674018926801e+01,-4.917064309120178223e-01,-3.877009032716105530e-01
-1.057461257314444936e+01,-4.930118620395660400e-01,-3.979889608492368502e-01
-1.059308082406917961e+01,-4.943338632583618164e-01,-4.083671895797174045e-01
-1.061164149454517158e+01,-4.956801831722259521e-01,-4.188072233865609562e-01
-1.063030234259399265e+01,-4.970522522926330566e-01,-4.293058508601652612e-01
-1.064907049880493872e+01,-4.984513521194458008e-01,-4.398611680828974357e-01
-1.066794632952158572e+01,-4.998774230480194092e-01,-4.504757637249761082e-01
-1.072259871346621374e+01,-4.726281464099884033e-01,-8.670276705970891840e-01
-1.034718950249412828e+01,-4.046598076820373535e-01,-1.088756634425563696e+00
-1.034137227273457960e+01,-4.023188650608062744e-01,-1.109807217254943135e+00
-1.033562223783815348e+01,-4.000199437141418457e-01,-1.130616260394265105e+00
-1.032993736092195114e+01,-3.977620303630828857e-01,-1.151189503306818240e+00
-1.032431631037775155e+01,-3.955443203449249268e-01,-1.171532393509564951e+00
-1.031875790229309686e+01,-3.933660089969635010e-01,-1.191650297231865441e+00
-1.031325919873111552e+01,-3.912260532379150391e-01,-1.211549064983506785e+00
-1.030782106864043612e+01,-3.891240358352661133e-01,-1.231232548288332618e+00
-1.030243990201357640e+01,-3.870587944984436035e-01,-1.250706775110780100e+00
-1.029711609150783147e+01,-3.850299417972564697e-01,-1.269975955329171402e+00
-1.029184681712318650e+01,-3.830364346504211426e-01,-1.289045104807481579e+00
-1.028663283331658995e+01,-3.810779452323913574e-01,-1.307918041865475667e+00
-1.028147172997121217e+01,-3.791536092758178711e-01,-1.326599652996002687e+00
-1.027636213084048933e+01,-3.772626817226409912e-01,-1.345094255678705109e+00
-1.027130280737361545e+01,-3.754045665264129639e-01,-1.363406086105624526e+00
-1.026629226883234658e+01,-3.735785484313964844e-01,-1.381539428552327697e+00
-1.026133164979792056e+01,-3.717844188213348389e-01,-1.399497218609242033e+00
-1.025641759101601203e+01,-3.700211942195892334e-01,-1.417284191628285672e+00
-1.025154963561865351e+01,-3.682883679866790771e-01,-1.434904062871819042e+00
-1.024672790264143707e+01,-3.665856420993804932e-01,-1.452359845772692726e+00
-1.024194921372986933e+01,-3.649120330810546875e-01,-1.469656079903546519e+00
-1.023721480307741238e+01,-3.632674515247344971e-01,-1.486795357379778748e+00
-1.023252237850408974e+01,-3.616510927677154541e-01,-1.503781730048423970e+00
-1.022787066682074375e+01,-3.600624799728393555e-01,-1.520618304064204063e+00
-1.022326139339161699e+01,-3.585014939308166504e-01,-1.537307689867144500e+00
-1.021869012045377723e+01,-3.569671213626861572e-01,-1.553854061785049145e+00
-1.021415826310051322e+01,-3.554592132568359375e-01,-1.570259816154038868e+00
-1.020966477712602050e+01,-3.539773523807525635e-01,-1.586528125536986966e+00
-1.020520763598293179e+01,-3.525208830833435059e-01,-1.602662125847514440e+00
-1.020078869785179165e+01,-3.510898351669311523e-01,-1.618663969558938875e+00
-1.019640377227764816e+01,-3.496831953525543213e-01,-1.634537406236433288e+00
-1.019205378318300603e+01,-3.483008444309234619e-01,-1.650284813891490732e+00
-1.018773908203198886e+01,-3.469426333904266357e-01,-1.665908404515223928e+00
-1.018345674122326194e+01,-3.456077277660369873e-01,-1.681411425067752985e+00
-1.018113207074477700e+01,-3.446086645126342773e-01,-1.696238127789376104e+00
-1.022905180452425178e+01,-3.517734408378601074e-01,-1.696747503400906742e+00
-1.027934026569198700e+01,-3.593100011348724365e-01,-1.697186700900636946e+00
-1.033193709901462398e+01,-3.672075569629669189e-01,-1.697617033505289585e+00
-1.038703001661306224e+01,-3.754954934120178223e-01,-1.698032368982336449e+00
-1.044438890645603735e+01,-3.841357529163360596e-01,-1.698539245170715084e+00
-1.050464256040772248e+01,-3.932288587093353271e-01,-1.699022128794287489e+00
-1.056800184077627769e+01,-4.028075933456420898e-01,-1.699484083901855014e+00
-1.063412831876899567e+01,-4.128164947032928467e-01,-1.700064033405711550e+00
-1.070379915897121847e+01,-4.233793616294860840e-01,-1.700633867711051517e+00
-1.077727517995914575e+01,-4.345366358757019043e-01,-1.701201581495000559e+00
-1.085476578056618990e+01,-4.463206529617309570e-01,-1.701792404454574692e+00
-1.093626381098462907e+01,-4.587289690971374512e-01,-1.702483204193483646e+00
-1.102342958582195287e+01,-4.720250070095062256e-01,-1.703007538651797548e+00
-1.111551071619012632e+01,-4.860872626304626465e-01,-1.703621224472310791e+00
-1.034858072523489092e+01,-4.284501075744628906e-01,-1.088012978151751575e+00
-1.034275885724024491e+01,-4.259713590145111084e-01,-1.109076986266214648e+00
-1.033700498899563769e+01,-4.235371947288513184e-01,-1.129898819269262278e+00
-1.033131501587762990e+01,-4.211462736129760742e-01,-1.150485354650595760e+00
-1.032568945991463849e+01,-4.187979698181152344e-01,-1.170841212171718437e+00
-1.032012690821084711e+01,-4.164914488792419434e-01,-1.190971691653839981e+00
-1.031462353665487086e+01,-4.142254292964935303e-01,-1.210883131332352480e+00
-1.030917988559975740e+01,-4.119994342327117920e-01,-1.230579659797977454e+00
-1.030379556114050565e+01,-4.098128378391265869e-01,-1.250065631179610559e+00
-1.029846806842750873e+01,-4.076645970344543457e-01,-1.269346652124237806e+00
-1.029319458746075355e+01,-4.055537283420562744e-01,-1.288427738495832475e+00
-1.028797569179736016e+01,-4.034797847270965576e-01,-1.307312904393439279e+00
-1.028280959530758309e+01,-4.014419615268707275e-01,-1.326006596667826498e+00
-1.027769603690273215e+01,-3.994397521018981934e-01,-1.344512711481182787e+00
-1.027263319724898594e+01,-3.974723219871520996e-01,-1.362835810175953677e+00
-1.026761961881217999e+01,-3.955389559268951416e-01,-1.380980062536028674e+00
-1.026265443484116346e+01,-3.936390578746795654e-01,-1.398949313194894239e+00
-1.025773654960143055e+01,-3.917720317840576172e-01,-1.416747340377884745e+00
-1.025286494864607612e+01,-3.899372220039367676e-01,-1.434378070006087080e+00
-1.024803960331493791e+01,-3.881342709064483643e-01,-1.451844596799953147e+00
-1.024325715435369766e+01,-3.863621354103088379e-01,-1.469151656111400195e+00
-1.023851934545122333e+01,-3.846207559108734131e-01,-1.486301367209670099e+00
-1.023382358903603517e+01,-3.829093277454376221e-01,-1.503297944516998941e+00
-1.022916859359435016e+01,-3.812272250652313232e-01,-1.520144985358893308e+00
-1.022455561164425397e+01,-3.795743286609649658e-01,-1.536844590679967038e+00
-1.021998059698136707e+01,-3.779495656490325928e-01,-1.553401296607681781e+00
-1.021544547419439120e+01,-3.763529658317565918e-01,-1.569817026632001511e+00
-1.021094808391964825e+01,-3.747837841510772705e-01,-1.586095374633254673e+00
-1.020648853031328684e+01,-3.732417523860931396e-01,-1.602238977365184391e+00
-1.020206531120279436e+01,-3.717262744903564453e-01,-1.618250874574362008e+00
-1.019767707211141250e+01,-3.702368438243865967e-01,-1.634134024719757994e+00
-1.019332421258679133e+01,-3.687732219696044922e-01,-1.649890901979913727e+00
-1.018900585444350426e+01,-3.673349320888519287e-01,-1.665524106459320475e+00
-1.018472011882994011e+01,-3.659214377403259277e-01,-1.681036692783997699e+00
-1.018215444502937395e+01,-3.648224771022796631e-01,-1.695941578106474390e+00
-1.023009254446192351e+01,-3.724067211151123047e-01,-1.696452680478919950e+00
-1.028040191186942920e+01,-3.803847730159759521e-01,-1.696892976208562942e+00
-1.033298916094632425e+01,-3.887396156787872314e-01,-1.697332817265042815e+00
-1.038805539714222093e+01,-3.975045979022979736e-01,-1.697762260135385892e+00
-1.044538567410359597e+01,-4.066421389579772949e-01,-1.698283055926876894e+00
-1.050564615401628110e+01,-4.162648916244506836e-01,-1.698770649836350621e+00
-1.056902392940903646e+01,-4.264034628868103027e-01,-1.699234741588014908e+00
-1.063517099992539272e+01,-4.369976222515106201e-01,-1.699816443067769356e+00
-1.070486072671037192e+01,-4.481776058673858643e-01,-1.700388775816864095e+00
-1.077834953756202552e+01,-4.599855840206146240e-01,-1.700960322948994241e+00
-1.085588649146895612e+01,-4.724623858928680420e-01,-1.701547956715669496e+00
-1.093759151369524396e+01,-4.856269061565399170e-01,-1.702202096286479449e+00
-1.102479294822045830e+01,-4.997018277645111084e-01,-1.702727587542731236e+00
-1.034760153120338622e+01,-4.518697857856750488e-01,-1.088536408139157530e+00
-1.034178146656437391e+01,-4.492554068565368652e-01,-1.109591630153405006e+00
-1.033602885897591506e+01,-4.466879665851593018e-01,-1.130405264394070075e+00
-1.033034073729706748e+01,-4.441662132740020752e-01,-1.150983275862617505e+00
-1.032471759035217040e+01,-4.416895508766174316e-01,-1.171330398812227447e+00
-1.031915641379620396e+01,-4.392567574977874756e-01,-1.191452712736042363e+00
-1.031365512266274109e+01,-4.368668496608734131e-01,-1.211355694909920455e+00
-1.030821322343455648e+01,-4.345190525054931641e-01,-1.231044042937789795e+00
-1.030283043669833276e+01,-4.322127699851989746e-01,-1.250522144152621751e+00
-1.029750451491243979e+01,-4.299469888210296631e-01,-1.269795180438770821e+00
-1.029223327694339751e+01,-4.277207255363464355e-01,-1.288868104697237005e+00
-1.028701562361152533e+01,-4.255332350730895996e-01,-1.307745563003244182e+00
-1.028185218000264634e+01,-4.233841300010681152e-01,-1.326430963793376661e+00
-1.027673994521691725e+01,-4.212723076343536377e-01,-1.344929518710886507e+00
-1.027167898676122704e+01,-4.191972613334655762e-01,-1.363244846851083825e+00
-1.026666699413097561e+01,-4.171581268310546875e-01,-1.381381491231787217e+00
-1.026170380584969166e+01,-4.151543676853179932e-01,-1.399343004540155366e+00
-1.025678814528304628e+01,-4.131852984428405762e-01,-1.417133360780800100e+00
-1.025191862130502685e+01,-4.112502336502075195e-01,-1.434756500754257758e+00
-1.024709320392308420e+01,-4.093483090400695801e-01,-1.452216428224037958e+00
-1.024231297963493148e+01,-4.074793457984924316e-01,-1.469515816593139901e+00
-1.023757691911421119e+01,-4.056427478790283203e-01,-1.486658215103543679e+00
-1.023288217260201272e+01,-4.038375914096832275e-01,-1.503647886261010536e+00
-1.022822933542526158e+01,-4.020635783672332764e-01,-1.520487485143912965e+00
-1.022361718247832840e+01,-4.003201127052307129e-01,-1.537180380094401944e+00
-1.021904429287630123e+01,-3.986065685749053955e-01,-1.553729758554801998e+00
-1.021451122874203143e+01,-3.969227075576782227e-01,-1.570138390095160208e+00
-1.021001478196212986e+01,-3.952676057815551758e-01,-1.586410060929904775e+00
-1.020555658173378610e+01,-3.936411738395690918e-01,-1.602546857124200530e+00
-1.020113512588449467e+01,-3.920428454875946045e-01,-1.618551818424618371e+00
-1.019674887903766880e+01,-3.904720246791839600e-01,-1.634428099069405782e+00
-1.019239707749956203e+01,-3.889282345771789551e-01,-1.650178332367129741e+00
-1.018808067839675857e+01,-3.874113857746124268e-01,-1.665804781837605164e+00
-1.018379693502775041e+01,-3.859206438064575195e-01,-1.681310498661674258e+00
-1.018111244788073044e+01,-3.847398757934570312e-01,-1.696243731940954014e+00
-1.022902367372560661e+01,-3.927375376224517822e-01,-1.696755480871096067e+00
-1.027930772579056296e+01,-4.011510610580444336e-01,-1.697195757978179786e+00
-1.033186789062105504e+01,-4.099618196487426758e-01,-1.697635688013421129e+00
-1.038689022592580713e+01,-4.192022979259490967e-01,-1.698069279549687893e+00
-1.044414513261413724e+01,-4.288302361965179443e-01,-1.698601729729873000e+00
-1.050435591375332578e+01,-4.389747083187103271e-01,-1.699093776784605270e+00
-1.056769782678855840e+01,-4.496659636497497559e-01,-1.699558266538282680e+00
-1.063380598831046164e+01,-4.608373939990997314e-01,-1.700140599547318221e+00
-1.070345379266813879e+01,-4.726263880729675293e-01,-1.700713682861286102e+00
-1.077689602812691128e+01,-4.850771725177764893e-01,-1.701286617078384467e+00
-1.085444694906863816e+01,-4.982444345951080322e-01,-1.701862041577777429e+00
-1.034652716158932506e+01,-4.753222465515136719e-01,-1.089110680625095862e+00
-1.034070880413889704e+01,-4.725719690322875977e-01,-1.110156592164268652e+00
-1.033495793694309839e+01,-4.698711037635803223e-01,-1.130960801438182228e+00
-1.032927260440662920e+01,-4.672184884548187256e-01,-1.151529195605878408e+00
-1.032365124593791705e+01,-4.646131098270416260e-01,-1.171867155776166403e+00
-1.031809152926255457e+01,-4.620538353919982910e-01,-1.191980583987537701e+00
-1.031259222238455386e+01,-4.595397114753723145e-01,-1.211874584281923184e+00
-1.030715293139891919e+01,-4.570701122283935547e-01,-1.231553510788218508e+00
-1.030177198122240689e+01,-4.546439945697784424e-01,-1.251022711411157839e+00
-1.029644860127091022e+01,-4.522606432437896729e-01,-1.270286555159086950e+00
-1.029117895255360082e+01,-4.499186575412750244e-01,-1.289351003588292022e+00
-1.028596392234372559e+01,-4.476176798343658447e-01,-1.308219417051832201e+00
-1.028080188708674747e+01,-4.453568160533905029e-01,-1.326896537791981023e+00
-1.027569265210212279e+01,-4.431354999542236328e-01,-1.345386032987574643e+00
-1.027063321649001182e+01,-4.409526288509368896e-01,-1.363693114281864460e+00
-1.026562330428227021e+01,-4.388075768947601318e-01,-1.381821301157933668e+00
-1.026066160564049135e+01,-4.366996586322784424e-01,-1.399774682112070900e+00
-1.025574725381351904e+01,-4.346282184123992920e-01,-1.417557101777762618e+00
-1.025087951486650617e+01,-4.325926005840301514e-01,-1.435171946821787836e+00
-1.024605689806121411e+01,-4.305920600891113281e-01,-1.452623501519712645e+00
-1.024127839239591609e+01,-4.286260306835174561e-01,-1.469914823942735538e+00
-1.023654383639414611e+01,-4.266939759254455566e-01,-1.487049466778014972e+00
-1.023185129967558638e+01,-4.247951209545135498e-01,-1.504031090314029928e+00
-1.022719985252611075e+01,-4.229288697242736816e-01,-1.520862900317732080e+00
-1.022258961398130950e+01,-4.210948944091796875e-01,-1.537547910221970682e+00
-1.021801812928600661e+01,-4.192922711372375488e-01,-1.554089876482276811e+00
-1.021348624107510616e+01,-4.175208210945129395e-01,-1.570491029414389006e+00
-1.020899301963448380e+01,-4.157800376415252686e-01,-1.586754574785258498e+00
-1.020453596212543346e+01,-4.140690267086029053e-01,-1.602884006862985489e+00
-1.020011632106604971e+01,-4.123876988887786865e-01,-1.618881426592183370e+00
-1.019573115053036538e+01,-4.107351601123809814e-01,-1.634750572103755406e+00
-1.019138236022763522e+01,-4.091114699840545654e-01,-1.650492990208558330e+00
-1.018706692294429317e+01,-4.075156748294830322e-01,-1.666112271341742890e+00
-1.018278437037810491e+01,-4.059474170207977295e-01,-1.681610886236672542e+00
-1.017998085922590690e+01,-4.046824276447296143e-01,-1.696571909893821006e+00
-1.022786403336226257e+01,-4.130941629409790039e-01,-1.697084087832576360e+00
-1.027812054321410962e+01,-4.219436347484588623e-01,-1.697524321102118039e+00
-1.033065177360674447e+01,-4.312108755111694336e-01,-1.697964300021688855e+00
-1.038563634138863456e+01,-4.409287571907043457e-01,-1.698399722977885773e+00
-1.044283076296960644e+01,-4.510501027107238770e-01,-1.698939580069418032e+00
-1.050297837416416513e+01,-4.617145657539367676e-01,-1.699438876004212284e+00
-1.056626833179644542e+01,-4.729565382003784180e-01,-1.699907040329952768e+00
-1.063233404651618663e+01,-4.847056865692138672e-01,-1.700490220070911329e+00
-1.070193878352979411e+01,-4.971046745777130127e-01,-1.701063721908993243e+00
-1.034807585087104265e+01,-4.994017481803894043e-01,-1.088282860826752740e+00
-1.034225257122828623e+01,-4.965119361877441406e-01,-1.109343604755206769e+00
-1.033649699594406179e+01,-4.936740696430206299e-01,-1.130162336147446656e+00
-1.033080587336536915e+01,-4.908866584300994873e-01,-1.150745559259245931e+00
-1.032518034950771479e+01,-4.881491959095001221e-01,-1.171097454210028088e+00
-1.031961579537280116e+01,-4.854600429534912109e-01,-1.191224994656543412e+00
-1.031411298029702373e+01,-4.828186333179473877e-01,-1.211132375597665511e+00
-1.030866847517273044e+01,-4.802235662937164307e-01,-1.230825429218554312e+00
-1.030328285355704310e+01,-4.776743352413177490e-01,-1.250308169618254528e+00
-1.029795365380442895e+01,-4.751697778701782227e-01,-1.269586088952073810e+00
-1.029267999083910645e+01,-4.727090895175933838e-01,-1.288663523024282220e+00
-1.028746068419379434e+01,-4.702913761138916016e-01,-1.307544970214350677e+00
-1.028229455340120602e+01,-4.679158627986907959e-01,-1.326234928901750321e+00
-1.027717969783991769e+01,-4.655815660953521729e-01,-1.344737812733173499e+00
-1.027211567552141247e+01,-4.632878601551055908e-01,-1.363057713650086988e+00
-1.026710180059436262e+01,-4.610340595245361328e-01,-1.381198280506699572e+00
-1.026213687771203986e+01,-4.588193893432617188e-01,-1.399163635003376038e+00
-1.025721736672029039e+01,-4.566426277160644531e-01,-1.416958708271311762e+00
-1.025234561697044455e+01,-4.545037448406219482e-01,-1.434585671108450811e+00
-1.024751808830835564e+01,-4.524015486240386963e-01,-1.452049454645988336e+00
-1.024273616262323472e+01,-4.503358602523803711e-01,-1.469352569711721790e+00
-1.023799784312661565e+01,-4.483058154582977295e-01,-1.486498905577483765e+00
-1.023330101853834506e+01,-4.463105499744415283e-01,-1.503492318311031362e+00
-1.022864561211473955e+01,-4.443496465682983398e-01,-1.520335640445387382e+00
-1.022403211957049507e+01,-4.424227178096771240e-01,-1.537031870533952516e+00
-1.021945688970496846e+01,-4.405286610126495361e-01,-1.553585038653958028e+00
-1.021492084644066090e+01,-4.386672973632812500e-01,-1.569997522816895641e+00
-1.021042391303388897e+01,-4.368381500244140625e-01,-1.586272155555787711e+00
-1.020596276687958692e+01,-4.350402653217315674e-01,-1.602412689880986285e+00
-1.020153962795795621e+01,-4.332736730575561523e-01,-1.618420886707252482e+00
-1.019715166483471691e+01,-4.315374791622161865e-01,-1.634300517369565275e+00
-1.019279788483276583e+01,-4.298310875892639160e-01,-1.650054148768338891e+00
-1.018847916379108476e+01,-4.281544089317321777e-01,-1.665683896727636615e+00
-1.018419347516230822e+01,-4.265066981315612793e-01,-1.681192897161079669e+00
-1.018114807106833375e+01,-4.251295030117034912e-01,-1.696233458994576226e+00
-1.022905150913274674e+01,-4.339650273323059082e-01,-1.696747665976108488e+00
-1.027933392166497661e+01,-4.432612955570220947e-01,-1.697188460567695234e+00
-1.033189185617972683e+01,-4.529963433742523193e-01,-1.697629233237842872e+00
-1.038690501147926604e+01,-4.632049202919006348e-01,-1.698065375547371803e+00
-1.044412765877823013e+01,-4.738369882106781006e-01,-1.698606343550791653e+00
-1.050423704543299230e+01,-4.850261211395263672e-01,-1.699123598253758249e+00
-1.056747396321311605e+01,-4.968187510967254639e-01,-1.699612871991774909e+00
-1.029679712739891606e+01,-4.975944459438323975e-01,-1.270124371013038544e+00
-1.029152535252200806e+01,-4.950174391269683838e-01,-1.289192298830894590e+00
-1.028630831064421436e+01,-4.924855530261993408e-01,-1.308064224887161675e+00
-1.028114344395295099e+01,-4.899975955486297607e-01,-1.326745116962289028e+00
-1.027603149202571942e+01,-4.875532388687133789e-01,-1.345238416696937112e+00
-1.027097025884959081e+01,-4.851512908935546875e-01,-1.363548700312999351e+00
-1.026595787700722440e+01,-4.827909171581268311e-01,-1.381680266965491732e+00
-1.026099452849717864e+01,-4.804714918136596680e-01,-1.399636768953800736e+00
-1.025607785473133227e+01,-4.781920611858367920e-01,-1.417422487108314755e+00
-1.025120787513304776e+01,-4.759520888328552246e-01,-1.435040778336915013e+00
-1.024638288830535515e+01,-4.737507104873657227e-01,-1.452495369336232578e+00
-1.024160291367162223e+01,-4.715874493122100830e-01,-1.469789617014149563e+00
-1.023686551135611822e+01,-4.694612622261047363e-01,-1.486927654505301177e+00
-1.023217142438152294e+01,-4.673719108104705811e-01,-1.503912055600457265e+00
-1.022751880365511923e+01,-4.653185009956359863e-01,-1.520746628283851543e+00
-1.022290645727534830e+01,-4.633004069328308105e-01,-1.537434626405958182e+00
-1.021833375091959084e+01,-4.613169729709625244e-01,-1.553979093158526448e+00
-1.021380005026522575e+01,-4.593677818775177002e-01,-1.570383071733305380e+00
-1.020930475419370964e+01,-4.574521780014038086e-01,-1.586649490830365883e+00
-1.020484606514102488e+01,-4.555694758892059326e-01,-1.602781552771480822e+00
-1.020042423495906903e+01,-4.537192881107330322e-01,-1.618781813022794447e+00
-1.019603761377957696e+01,-4.519009590148925781e-01,-1.634653392618477197e+00
-1.019168610997941649e+01,-4.501140713691711426e-01,-1.650398747412445299e+00
-1.018737000861455932e+01,-4.483583569526672363e-01,-1.666020318379165310e+00
-1.018308611989623813e+01,-4.466327726840972900e-01,-1.681521400562281610e+00
-1.017992043238864142e+01,-4.451650381088256836e-01,-1.696589387528811388e+00
-1.022779441164033365e+01,-4.544166028499603271e-01,-1.697103739561723224e+00
-1.027804634981420406e+01,-4.641506969928741455e-01,-1.697544757047112274e+00
-1.033057315622461303e+01,-4.743444323539733887e-01,-1.697985438894930255e+00
-1.038555274244534132e+01,-4.850337207317352295e-01,-1.698421775438100800e+00
-1.044274146231101241e+01,-4.961666762828826904e-01,-1.698962461383828115e+00
-1.025283308191400167e+01,-4.980828464031219482e-01,-1.434390797707643550e+00
-1.024800375224271853e+01,-4.957789480686187744e-01,-1.451858651416843449e+00
-1.024321928706964258e+01,-4.935148358345031738e-01,-1.469166243092242530e+00
-1.023847808461003339e+01,-4.912897646427154541e-01,-1.486316955955443220e+00
-1.023377875373788193e+01,-4.891028404235839844e-01,-1.503314730806980526e+00
-1.022912128411765131e+01,-4.869536757469177246e-01,-1.520162171196522971e+00
-1.022450490861042205e+01,-4.848415851593017578e-01,-1.536862778282526598e+00
-1.021992864941853973e+01,-4.827659428119659424e-01,-1.553419495644512871e+00
-1.021539019948257909e+01,-4.807257652282714844e-01,-1.569835998450409553e+00
-1.021089097389583245e+01,-4.787209630012512207e-01,-1.586114683036337292e+00
-1.020642842173606724e+01,-4.767506122589111328e-01,-1.602258781482965189e+00
-1.020200340051764520e+01,-4.748144447803497314e-01,-1.618270900785140576e+00
-1.019761227736453790e+01,-4.729112684726715088e-01,-1.634154579849310451e+00
-1.019325764893605957e+01,-4.710413217544555664e-01,-1.649911564710787149e+00
-1.018893684981830816e+01,-4.692036509513854980e-01,-1.665545054246165835e+00
-1.018464978838814794e+01,-4.673978388309478760e-01,-1.681057504309361406e+00
-1.018123941659892218e+01,-4.658086299896240234e-01,-1.696206950595762208e+00
-1.022913672129504903e+01,-4.754877984523773193e-01,-1.696723474823287559e+00
-1.027941811483645829e+01,-4.856728911399841309e-01,-1.697165215107186764e+00
-1.033197506356446560e+01,-4.963387846946716309e-01,-1.697606818977970278e+00
-1.020967441854311630e+01,-4.994478523731231689e-01,-1.586524839730139025e+00
-1.020521355524731177e+01,-4.973919391632080078e-01,-1.602660118872475614e+00
-1.020079033738452168e+01,-4.953717887401580811e-01,-1.618663452074435849e+00
-1.019640280481553063e+01,-4.933864772319793701e-01,-1.634537746266285785e+00
-1.019204942216375365e+01,-4.914352893829345703e-01,-1.650286155686273570e+00
-1.018773091757242000e+01,-4.895179867744445801e-01,-1.665910877446063143e+00
-1.018344585527716895e+01,-4.876339137554168701e-01,-1.681414722308871790e+00
-1.017991487492391833e+01,-4.859478175640106201e-01,-1.696591002945295079e+00
-1.022778019854525766e+01,-4.960450232028961182e-01,-1.697107809584418980e+00
-8.536403796366974106e+00,-4.375740885734558105e-01,-2.249648617890861679e+00
-8.587408205687751206e+00,-4.840131402015686035e-01,-2.246330689822339188e+00
-8.521081367933030393e+00,-4.228698313236236572e-01,-2.257382298976366997e+00
-8.344730692226368873e+00,-2.610674500465393066e-01,-2.279804175284418921e+00
-8.369175856182145878e+00,-2.832676172256469727e-01,-2.279014852317327922e+00
-8.417084353916305162e+00,-3.269107043743133545e-01,-2.276215805536317749e+00
-8.463508244352231813e+00,-3.691562712192535400e-01,-2.274144735936013184e+00
-8.509984538016158950e+00,-4.114157855510711670e-01,-2.272640877879513965e+00
-8.556303631628958684e+00,-4.535026252269744873e-01,-2.271721221192578355e+00
-8.599556407256152113e+00,-4.927665889263153076e-01,-2.271596742431680305e+00
-8.342254123020062195e+00,-2.640180885791778564e-01,-2.274801697698749514e+00
-8.340637673388540563e+00,-2.623043060302734375e-01,-2.276762681390619658e+00
-8.370242647674201564e+00,-2.897288501262664795e-01,-2.275044968046412208e+00
-8.339982252166654675e+00,-2.613166272640228271e-01,-2.280330683092014699e+00
-8.339822915361038369e+00,-2.609954178333282471e-01,-2.282087335094730385e+00
-8.339771557569465088e+00,-2.607849836349487305e-01,-2.283829137053831282e+00
-8.339791188553821399e+00,-2.606506645679473877e-01,-2.285561659995984929e+00
-8.339935515940897659e+00,-2.606423199176788330e-01,-2.287281714244095987e+00
-8.340117245134615942e+00,-2.606784999370574951e-01,-2.288998737190938826e+00
-8.354837851388428049e+00,-2.742320597171783447e-01,-2.289644113631418065e+00
-8.398427238719849086e+00,-3.145931363105773926e-01,-2.288518488432409903e+00
-8.441896248433552685e+00,-3.548208177089691162e-01,-2.287935907433666483e+00
-8.483715879671830606e+00,-3.935009837150573730e-01,-2.287978159734672889e+00
-8.495770449255974910e+00,-4.165867865085601807e-01,-2.241250292206776074e+00
-8.337038432562392742e+00,-2.647014558315277100e-01,-2.268531999253743603e+00
-8.335780529076853185e+00,-2.632562816143035889e-01,-2.270459524936160989e+00
-8.334966904343897198e+00,-2.622467875480651855e-01,-2.272305030679401039e+00
-8.334345976757932206e+00,-2.614323496818542480e-01,-2.274111165769329812e+00
-8.333955617448594921e+00,-2.608483731746673584e-01,-2.275876811500428420e+00
-8.333605065752756502e+00,-2.603129744529724121e-01,-2.277629953457281697e+00
-8.333325692460846312e+00,-2.598557472229003906e-01,-2.279367812721265096e+00
-8.333274128218047139e+00,-2.596251368522644043e-01,-2.281074482784580582e+00
-8.333327446468263844e+00,-2.595040500164031982e-01,-2.282767243319514971e+00
-8.333472769603963215e+00,-2.594800889492034912e-01,-2.284449411293167476e+00
-8.333561291372438617e+00,-2.594121396541595459e-01,-2.286136555841850715e+00
-8.333719205652537099e+00,-2.594196796417236328e-01,-2.287816929589568726e+00
-8.336137808556136619e+00,-2.615758776664733887e-01,-2.289316781618799812e+00
-8.335896655029662483e+00,-2.612245678901672363e-01,-2.291040978429678798e+00
-8.335773599012473056e+00,-2.609950006008148193e-01,-2.292752670116084079e+00
-8.335751333197663371e+00,-2.608706951141357422e-01,-2.294455254308862990e+00
-8.336163868305046520e+00,-2.611669898033142090e-01,-2.296132252451323463e+00
-8.402851328359650651e+00,-3.240536749362945557e-01,-2.294558418401121180e+00
-8.468672544405169589e+00,-3.860969841480255127e-01,-2.293840881080527083e+00
-8.531596522701510921e+00,-4.598068296909332275e-01,-2.229533076530538782e+00
-8.334446130327746616e+00,-2.674403786659240723e-01,-2.265473395929102907e+00
-8.332801471289334572e+00,-2.655721902847290039e-01,-2.267469377219991866e+00
-8.331540454514275496e+00,-2.640903294086456299e-01,-2.269381958786914844e+00
-8.330728281119963441e+00,-2.630568444728851318e-01,-2.271208871607004465e+00
-8.330108138185122968e+00,-2.622213065624237061e-01,-2.272995235212980525e+00
-8.329753722759480894e+00,-2.616545259952545166e-01,-2.274734790205770629e+00
-8.329430460118922852e+00,-2.611286640167236328e-01,-2.276463062807771998e+00
-8.329117788950107126e+00,-2.606237232685089111e-01,-2.278183329249177991e+00
-8.329054929899918136e+00,-2.603708207607269287e-01,-2.279867903780667504e+00
-8.329128662262355931e+00,-2.602599859237670898e-01,-2.281534142471362436e+00
-8.329273461321127670e+00,-2.602276802062988281e-01,-2.283191582440300404e+00
-8.329353807924341879e+00,-2.601430416107177734e-01,-2.284855022737826147e+00
-8.329460193859324235e+00,-2.600934207439422607e-01,-2.286515022288545307e+00
-8.329825643935205193e+00,-2.603032588958740234e-01,-2.288152152294132158e+00
-8.330166068777053567e+00,-2.604985237121582031e-01,-2.289794041148714321e+00
