-4.564363956451416,0.08251826465129852,5.885833740234375
-4.591006755828857,0.08267325907945633,5.882831573486328
-4.617750644683838,0.08282961696386337,5.879818439483643
-4.644594192504883,0.08298731595277786,5.876791477203369
-4.671541213989258,0.08314642310142517,5.873754024505615
-4.698592185974121,0.0833069235086441,5.8707051277160645
-4.7257490158081055,0.08346885442733765,5.867645740509033
-4.752990245819092,0.08363182097673416,5.864547252655029
-4.780296325683594,0.08379548043012619,5.861385822296143
-4.807715892791748,0.08396067470312119,5.858218669891357
-4.835237979888916,0.08412722498178482,5.855032444000244
-4.862871170043945,0.08429524302482605,5.851834297180176
-4.886178016662598,0.08438809961080551,5.84331750869751
-4.891579627990723,0.08417295664548874,5.813440799713135
-4.896867752075195,0.0839582309126854,5.783614158630371
-4.902151584625244,0.08374576270580292,5.753965377807617
-4.907433032989502,0.0835355594754219,5.724494457244873
-4.912654876708984,0.08332663774490356,5.695132255554199
-4.917867660522461,0.08311982452869415,5.66593599319458
-4.92307186126709,0.08291509747505188,5.636903285980225
-4.9282121658325195,0.08271151036024094,5.607969284057617
-4.933325290679932,0.08250965923070908,5.579174518585205
-4.938344955444336,0.08230841904878616,5.550442695617676
-4.94335412979126,0.08210916817188263,5.521866321563721
-4.948310375213623,0.08191116899251938,5.4933953285217285
-4.953278541564941,0.08171547949314117,5.4651007652282715
-4.958205699920654,0.08152119815349579,5.436921119689941
-4.9630866050720215,0.08132823556661606,5.40885066986084
-4.967979907989502,0.081137515604496,5.380950450897217
-4.972830772399902,0.0809481292963028,5.353159427642822
-4.977643966674805,0.08076014369726181,5.32548189163208
-4.982421398162842,0.08057356625795364,5.297917366027832
-4.987231254577637,0.08038947731256485,5.270537376403809
-4.992013931274414,0.08020690083503723,5.243276119232178
-4.996786117553711,0.08002607524394989,5.216150283813477
-5.001576900482178,0.07984745502471924,5.189187526702881
-5.006344318389893,0.07967034727334976,5.162342071533203
-5.011089324951172,0.07949474453926086,5.135614395141602
-5.015812873840332,0.07932064682245255,5.109003067016602
-5.020516872406006,0.0791480764746666,5.0825090408325195
-5.025205612182617,0.078977070748806,5.0561347007751465
-5.030439376831055,0.07881640642881393,5.030439376831055
-5.035144329071045,0.07864920049905777,5.004343509674072
-5.03983211517334,0.07848348468542099,4.978360176086426
-5.044498920440674,0.07831918448209763,4.95248556137085
-5.049136638641357,0.07815615087747574,4.926708698272705
-5.053766250610352,0.0779946893453598,4.9010491371154785
-5.058370590209961,0.07783453911542892,4.875489711761475
-5.062880992889404,0.07767461985349655,4.8499627113342285
-5.067351341247559,0.07751575857400894,4.824519634246826
-5.071858882904053,0.07735911756753922,4.799232482910156
-5.076347827911377,0.07720381766557693,4.774046421051025
-5.080824375152588,0.07704994827508926,4.748966693878174
-5.085281848907471,0.07689740508794785,4.723985195159912
-5.089718818664551,0.0767461284995079,4.699099063873291
-5.094144344329834,0.07659626752138138,4.67431640625
-5.098548889160156,0.07644764333963394,4.6496262550354
-5.102937698364258,0.07630033046007156,4.625033378601074
-5.107354164123535,0.07615496218204498,4.600574016571045
-19.82107162475586,0.22905434668064117,-5.880089282989502
-19.772676467895508,0.2287043333053589,-5.931793212890625
-19.724519729614258,0.22835855185985565,-5.983367443084717
-19.676259994506836,0.22801312804222107,-6.034710884094238
-19.6284122467041,0.2276739478111267,-6.085981845855713
-19.580629348754883,0.2273370325565338,-6.1370768547058105
-19.532907485961914,0.2270023077726364,-6.1879963874816895
-19.485414505004883,0.2266717553138733,-6.238795280456543
-19.437984466552734,0.22634339332580566,-6.289422035217285
-19.39061737060547,0.22601725161075592,-6.339879035949707
-19.343477249145508,0.22569525241851807,-6.39022159576416
-19.29656219482422,0.22537735104560852,-6.4404520988464355
-19.24970817565918,0.22506161034107208,-6.4905171394348145
-19.202939987182617,0.22474835813045502,-6.540428161621094
-19.15639305114746,0.22443915903568268,-6.590231895446777
-19.109909057617188,0.22413216531276703,-6.6398773193359375
-19.06348991394043,0.22382737696170807,-6.689365863800049
-19.017292022705078,0.22352665662765503,-6.7387542724609375
-18.97115135192871,0.22322805225849152,-6.7879862785339355
-18.92523956298828,0.2229335755109787,-6.8371262550354
-18.879383087158203,0.2226412296295166,-6.88611364364624
-18.833608627319336,0.2223512828350067,-6.9349589347839355
-18.78790283203125,0.2220635712146759,-6.983659267425537
-18.74241065979004,0.22177983820438385,-7.0322699546813965
-18.6971378326416,0.22150014340877533,-7.080796718597412
-18.651775360107422,0.22122082114219666,-7.129123687744141
-18.60662269592285,0.22094541788101196,-7.177366733551025
-18.561542510986328,0.22067229449748993,-7.2254743576049805
-18.516691207885742,0.22040332853794098,-7.273509979248047
-18.471755981445312,0.22013479471206665,-7.321352958679199
-18.42702865600586,0.21987015008926392,-7.369119644165039
-18.382522583007812,0.2196095883846283,-7.416818141937256
-18.337923049926758,0.21934932470321655,-7.4643235206604
-18.293537139892578,0.21909303963184357,-7.511761665344238
-18.249235153198242,0.2188391536474228,-7.559080600738525
-18.204999923706055,0.21858751773834229,-7.606276512145996
-18.16097640991211,0.21833984553813934,-7.653410911560059
-18.11687469482422,0.21809262037277222,-7.7003631591796875
-18.07297706604004,0.2178492695093155,-7.747254371643066
-18.029150009155273,0.21760819852352142,-7.794030666351318
-17.98554801940918,0.21737124025821686,-7.840759754180908
-17.941871643066406,0.21713481843471527,-7.887313365936279
-17.898401260375977,0.21690228581428528,-7.9338154792785645
-17.854997634887695,0.21667195856571198,-7.9802069664001465
-17.81165313720703,0.21644377708435059,-8.02648639678955
-17.768402099609375,0.21621815860271454,-8.072669982910156
-17.725217819213867,0.21599474549293518,-8.118746757507324
-17.682100296020508,0.2157735377550125,-8.164718627929688
-17.63918113708496,0.21555617451667786,-8.210648536682129
-17.59620475769043,0.2153395265340805,-8.256420135498047
-17.553447723388672,0.21512697637081146,-8.302163124084473
-17.510759353637695,0.2149166762828827,-8.347807884216309
-17.468135833740234,0.21470856666564941,-8.393355369567871
-17.42557144165039,0.21450261771678925,-8.43880558013916
-17.38311195373535,0.21429933607578278,-8.48417854309082
-17.340715408325195,0.2140982747077942,-8.529458999633789
-17.29838752746582,0.21389946341514587,-8.574649810791016
-17.256126403808594,0.21370288729667664,-8.6197509765625
-17.213956832885742,0.21350887417793274,-8.664777755737305
-17.171865463256836,0.21331721544265747,-8.709723472595215
-17.12983512878418,0.2131277471780777,-8.754582405090332
-17.08787727355957,0.21294060349464417,-8.799361228942871
-17.046018600463867,0.21275609731674194,-8.844075202941895
-17.004226684570312,0.21257384121418,-8.88870906829834
-16.962501525878906,0.2123938649892807,-8.933265686035156
-16.92086410522461,0.2122163623571396,-8.977754592895508
-16.87931251525879,0.21204139292240143,-9.02217960357666
-16.837703704833984,0.21186713874340057,-9.066465377807617
-16.796289443969727,0.21169674396514893,-9.110747337341309
-16.75497817993164,0.21152907609939575,-9.154977798461914
-16.713613510131836,0.21136215329170227,-9.19907283782959
-16.672317504882812,0.21119754016399384,-9.24310302734375
-16.63111686706543,0.2110355645418167,-9.287080764770508
-16.590002059936523,0.21087612211704254,-9.331005096435547
-16.5489559173584,0.21071897447109222,-9.37486743927002
-16.507999420166016,0.21056441962718964,-9.418682098388672
-16.467012405395508,0.2104109227657318,-9.462380409240723
-16.426095962524414,0.21025975048542023,-9.506021499633789
-16.38526725769043,0.21011118590831757,-9.5496187210083
-16.34453582763672,0.2099652886390686,-9.59317684173584
-16.303871154785156,0.2098217010498047,-9.63668155670166
-16.26318359375,0.20967932045459747,-9.680082321166992
-16.22258758544922,0.2095395177602768,-9.723443984985352
-16.18206024169922,0.20940211415290833,-9.766759872436523
-16.141525268554688,0.2092660516500473,-9.809981346130371
-16.101070404052734,0.20913249254226685,-9.853164672851562
-16.060697555541992,0.20900146663188934,-9.896310806274414
-16.020315170288086,0.20887181162834167,-9.93936824798584
-15.980009078979492,0.2087446004152298,-9.982388496398926
-15.939799308776855,0.20862014591693878,-10.025386810302734
-15.899576187133789,0.20849700272083282,-10.0682954788208
-15.859427452087402,0.20837633311748505,-10.11117172241211
-15.819276809692383,0.20825712382793427,-10.15396785736084
-15.779204368591309,0.20814043283462524,-10.196736335754395
-15.739234924316406,0.20802660286426544,-10.239495277404785
-15.699249267578125,0.2079140692949295,-10.282169342041016
-15.659348487854004,0.20780417323112488,-10.324825286865234
-15.619446754455566,0.20769578218460083,-10.36740779876709
-15.579629898071289,0.2075900286436081,-10.4099760055542
-15.539820671081543,0.20748589932918549,-10.452478408813477
-15.499977111816406,0.20738284289836884,-10.494890213012695
-15.460258483886719,0.20728299021720886,-10.537317276000977
-15.420613288879395,0.20718565583229065,-10.579729080200195
-15.380983352661133,0.20709006488323212,-10.622086524963379
-15.341331481933594,0.20699574053287506,-10.6643648147583
-15.301695823669434,0.20690317451953888,-10.70659065246582
-15.262141227722168,0.2068132609128952,-10.748812675476074
-15.222705841064453,0.20672652125358582,-10.791058540344238
-15.183154106140137,0.20663978159427643,-10.833162307739258
-15.143718719482422,0.20655620098114014,-10.87529182434082
-15.104272842407227,0.20647403597831726,-10.917357444763184
-15.064947128295898,0.20639511942863464,-10.959454536437988
-15.025609970092773,0.20631763339042664,-11.001489639282227
-14.986200332641602,0.20624074339866638,-11.043418884277344
-14.946977615356445,0.2061680406332016,-11.085433959960938
-14.907682418823242,0.20609594881534576,-11.12734603881836
-14.86838436126709,0.2060254067182541,-11.169205665588379
-14.829204559326172,0.20595815777778625,-11.211108207702637
-14.790034294128418,0.2058926522731781,-11.252970695495605
-14.750872611999512,0.20582890510559082,-11.294795036315918
-14.711740493774414,0.2057671993970871,-11.336597442626953
-14.672616004943848,0.20570728182792664,-11.378364562988281
-14.633424758911133,0.2056480497121811,-11.420036315917969
-14.594437599182129,0.20559336245059967,-11.46182918548584
-14.555364608764648,0.20553915202617645,-11.503515243530273
-14.51633358001709,0.2054871916770935,-11.545197486877441
-14.477317810058594,0.20543712377548218,-11.586854934692383
-14.438230514526367,0.20538775622844696,-11.62842082977295
-14.399271011352539,0.2053419053554535,-11.670056343078613
-14.360335350036621,0.20529808104038239,-11.711677551269531
-14.321334838867188,0.20525504648685455,-11.753215789794922
-14.282464981079102,0.20521561801433563,-11.794831275939941
-14.243532180786133,0.20517702400684357,-11.836366653442383
-14.20462703704834,0.20514057576656342,-11.877899169921875
-14.165678024291992,0.20510521531105042,-11.919368743896484
-14.126851081848145,0.20507340133190155,-11.960915565490723
-14.087969779968262,0.20504255592823029,-12.002394676208496
-14.0491304397583,0.20501409471035004,-12.0438871383667
-14.010251998901367,0.20498685538768768,-12.0853271484375
-13.971407890319824,0.204961895942688,-12.126776695251465
-13.93260669708252,0.2049393653869629,-12.168245315551758
-13.893765449523926,0.20491807162761688,-12.209663391113281
-13.854976654052734,0.2048993706703186,-12.251113891601562
-13.816146850585938,0.20488189160823822,-12.292513847351074
-13.77736759185791,0.20486700534820557,-12.33394718170166
-13.738548278808594,0.2048533707857132,-12.375333786010742
-13.699793815612793,0.20484255254268646,-12.416769027709961
-13.661008834838867,0.20483317971229553,-12.458169937133789
-13.62219524383545,0.20482522249221802,-12.49953842163086
-13.583436012268066,0.20481999218463898,-12.540950775146484
-13.544655799865723,0.20481635630130768,-12.582342147827148
-13.505850791931152,0.20481424033641815,-12.623706817626953
-13.467111587524414,0.20481504499912262,-12.665132522583008
-13.428275108337402,0.2048163115978241,-12.706467628479004
-13.389509201049805,0.20482060313224792,-12.747872352600098
-13.35073184967041,0.20482666790485382,-12.78926944732666
-13.31193733215332,0.204834446310997,-12.830656051635742
-13.2731351852417,0.20484407246112823,-12.872041702270508
-13.234406471252441,0.20485684275627136,-12.913506507873535
-13.195595741271973,0.204870343208313,-12.954902648925781
-13.156780242919922,0.20488578081130981,-12.996304512023926
-13.117968559265137,0.20490331947803497,-13.037724494934082
-13.079176902770996,0.20492321252822876,-13.079176902770996
-13.040421485900879,0.20494571328163147,-13.120682716369629
-13.001667022705078,0.2049703299999237,-13.162208557128906
-12.962907791137695,0.20499692857265472,-13.20374870300293
-12.924139022827148,0.20502549409866333,-13.245302200317383
-12.885354995727539,0.20505595207214355,-13.286863327026367
-12.846473693847656,0.20508696138858795,-13.328348159790039
-12.807646751403809,0.2051209807395935,-13.369915962219238
-12.768881797790527,0.20515814423561096,-13.411575317382812
-12.73000431060791,0.20519569516181946,-13.45314884185791
-12.691107749938965,0.20523510873317719,-13.494731903076172
-12.652250289916992,0.20527733862400055,-13.536389350891113
-12.613357543945312,0.20532123744487762,-13.578043937683105
-12.574421882629395,0.20536664128303528,-13.619688987731934
-12.5355224609375,0.20541487634181976,-13.66141128540039
-12.496569633483887,0.20546451210975647,-13.703115463256836
-12.457564353942871,0.2055155634880066,-13.744804382324219
-12.418598175048828,0.2055695503950119,-13.786579132080078
-12.379572868347168,0.20562484860420227,-13.828332901000977
-12.340561866760254,0.20568272471427917,-13.870150566101074
-12.301486015319824,0.20574185252189636,-13.911943435668945
-12.262426376342773,0.20580360293388367,-13.953805923461914
-12.22330093383789,0.20586661994457245,-13.995644569396973
-12.184182167053223,0.2059321403503418,-14.037546157836914
-12.14498233795166,0.20599870383739471,-14.0794095993042
-12.105865478515625,0.20606911182403564,-14.121428489685059
-12.0665922164917,0.20613928139209747,-14.163323402404785
-12.02739429473877,0.20621319115161896,-14.205368041992188
-11.988101959228516,0.20628796517848969,-14.24736499786377
-11.948813438415527,0.20636530220508575,-14.289432525634766
-11.909505844116211,0.2064448446035385,-14.331544876098633
-11.87017822265625,0.20652657747268677,-14.373703002929688
-11.830757141113281,0.20660920441150665,-14.41581916809082
-11.791399002075195,0.2066955417394638,-14.458086967468262
-11.751930236816406,0.2067825198173523,-14.500292778015137
-11.712440490722656,0.20687174797058105,-14.54255199432373
-11.672924995422363,0.2069631665945053,-14.584857940673828
-11.633365631103516,0.2070564478635788,-14.627191543579102
-11.593785285949707,0.20715203881263733,-14.669583320617676
-11.554163932800293,0.20724959671497345,-14.712008476257324
-11.514497756958008,0.20734907686710358,-14.75446605682373
-11.474801063537598,0.207450732588768,-14.79697322845459
-11.435046195983887,0.20755411684513092,-14.839499473571777
-11.395258903503418,0.20765969157218933,-14.88207721710205
-11.355415344238281,0.207767054438591,-14.92467975616455
-11.315519332885742,0.2078762948513031,-14.967312812805176
-11.275652885437012,0.2079889178276062,-15.010086059570312
-11.235721588134766,0.2081032246351242,-15.052877426147461
-11.195664405822754,0.20821811258792877,-15.095605850219727
-11.155609130859375,0.20833595097064972,-15.138445854187012
-11.115586280822754,0.2084573656320572,-15.181441307067871
-11.075407028198242,0.20857882499694824,-15.224337577819824
-11.035246849060059,0.2087036371231079,-15.267374992370605
-10.995007514953613,0.20882996916770935,-15.310420989990234
-10.954703330993652,0.20895814895629883,-15.353499412536621
-10.914395332336426,0.20908932387828827,-15.396695137023926
-10.874016761779785,0.20922225713729858,-15.439916610717773
-10.833629608154297,0.20935818552970886,-15.483258247375488
-10.793088912963867,0.20949427783489227,-15.526509284973145
-10.752533912658691,0.20963329076766968,-15.569873809814453
-10.711983680725098,0.2097756266593933,-15.613382339477539
-10.671330451965332,0.20991919934749603,-15.656881332397461
-10.630602836608887,0.2100645750761032,-15.70041275024414
-10.58984088897705,0.2102125883102417,-15.744038581848145
-10.549083709716797,0.21036402881145477,-15.787818908691406
-10.508135795593262,0.21051505208015442,-15.831465721130371
-10.467251777648926,0.21067075431346893,-15.87536334991455
-10.426262855529785,0.2108277678489685,-15.919258117675781
-10.385169982910156,0.21098613739013672,-15.963151931762695
-10.34405517578125,0.21114757657051086,-16.007177352905273
-10.30282211303711,0.21131010353565216,-16.05118179321289
-10.261569023132324,0.21147580444812775,-16.095327377319336
-10.220273971557617,0.2116442173719406,-16.139575958251953
-10.178865432739258,0.21181392669677734,-16.183822631835938
-10.137426376342773,0.21198664605617523,-16.22819709777832
-10.09593391418457,0.21216195821762085,-16.272666931152344
-10.054337501525879,0.21233883500099182,-16.317157745361328
-10.012685775756836,0.21251831948757172,-16.361743927001953
-9.97098445892334,0.21270056068897247,-16.406444549560547
-9.929166793823242,0.21288415789604187,-16.45114517211914
-9.887293815612793,0.21307046711444855,-16.495952606201172
-9.845364570617676,0.2132594734430313,-16.540868759155273
-9.803311347961426,0.21344976127147675,-16.585783004760742
-9.761192321777344,0.21364262700080872,-16.630794525146484
-9.719019889831543,0.2138383686542511,-16.675928115844727
-9.676790237426758,0.21403692662715912,-16.72117805480957
-9.63448715209961,0.2142380028963089,-16.766525268554688
-9.592050552368164,0.214440256357193,-16.811861038208008
-9.549548149108887,0.21464526653289795,-16.857309341430664
-9.506969451904297,0.21485282480716705,-16.902856826782227
-9.464322090148926,0.21506310999393463,-16.948516845703125
-9.421608924865723,0.21527627110481262,-16.994298934936523
-9.378812789916992,0.21549192070960999,-17.040178298950195
-9.335860252380371,0.2157084345817566,-17.086021423339844
-9.292841911315918,0.21592789888381958,-17.131994247436523
-9.249813079833984,0.2161516398191452,-17.178205490112305
-9.206615447998047,0.21637603640556335,-17.224367141723633
-9.163345336914062,0.2166033536195755,-17.270654678344727
-9.119988441467285,0.21683330833911896,-17.317052841186523
-9.07653522491455,0.2170657068490982,-17.36353874206543
-9.032987594604492,0.2173006385564804,-17.410127639770508
-8.989363670349121,0.21753856539726257,-17.456851959228516
-8.945637702941895,0.21777892112731934,-17.503665924072266
-8.901809692382812,0.21802175045013428,-17.55057716369629
-8.857806205749512,0.21826526522636414,-17.59743881225586
-8.813790321350098,0.21851354837417603,-17.64457893371582
-8.76966381072998,0.21876418590545654,-17.691804885864258
-8.725432395935059,0.2190173864364624,-17.7391357421875
-8.681086540222168,0.21927298605442047,-17.78655242919922
-8.636650085449219,0.21953155100345612,-17.834108352661133
-8.592170715332031,0.2197944074869156,-17.881906509399414
-8.547500610351562,0.22005781531333923,-17.929643630981445
-8.502713203430176,0.22032366693019867,-17.977476119995117
-8.457889556884766,0.2205941528081894,-18.02557945251465
-8.41287899017334,0.2208653837442398,-18.073637008666992
-8.367815971374512,0.22114090621471405,-18.1219425201416
-8.32255744934082,0.22141699492931366,-18.170185089111328
-8.277241706848145,0.2216973900794983,-18.21867561340332
-8.231813430786133,0.22198067605495453,-18.267295837402344
-8.186253547668457,0.22226636111736298,-18.316007614135742
-8.140633583068848,0.222556471824646,-18.364974975585938
-8.094806671142578,0.22284702956676483,-18.41387367248535
-8.048914909362793,0.22314198315143585,-18.46302604675293
-8.002899169921875,0.2234397679567337,-18.512304306030273
-7.9567461013793945,0.22374007105827332,-18.561683654785156
-7.910449028015137,0.22404275834560394,-18.61115074157715
-7.864078521728516,0.22434985637664795,-18.660877227783203
-7.8174920082092285,0.22465738654136658,-18.710527420043945
-7.7708330154418945,0.22496949136257172,-18.76045036315918
-7.7241010665893555,0.22528627514839172,-18.810651779174805
-7.677152156829834,0.22560358047485352,-18.860788345336914
-7.630115509033203,0.2259252518415451,-18.911178588867188
-7.582925319671631,0.22624939680099487,-18.9616641998291
-7.53557825088501,0.22657601535320282,-19.012245178222656
-7.488074779510498,0.22690510749816895,-19.062923431396484
-7.440488815307617,0.22723902761936188,-19.113893508911133
-7.392737865447998,0.22757533192634583,-19.164953231811523
-7.344891548156738,0.22791622579097748,-19.216283798217773
-7.296878814697266,0.22825957834720612,-19.267711639404297
-7.2486982345581055,0.22860543429851532,-19.31923484802246
-7.200345516204834,0.22895368933677673,-19.370845794677734
-7.151889801025391,0.22930659353733063,-19.422739028930664
-7.103269100189209,0.22966226935386658,-19.474748611450195
-7.054470539093018,0.23002038896083832,-19.526851654052734
-7.00555944442749,0.23038309812545776,-19.579227447509766
-6.956467151641846,0.2307482659816742,-19.631696701049805
-6.907260417938232,0.23111817240715027,-19.684450149536133
-6.85786771774292,0.23149052262306213,-19.73729705810547
-6.808289051055908,0.23186537623405457,-19.790237426757812
-6.758587837219238,0.23224496841430664,-19.84346580505371
-6.708703517913818,0.23262731730937958,-19.896808624267578
-6.658690452575684,0.23301437497138977,-19.950437545776367
-6.608482837677002,0.2334039807319641,-20.004161834716797
-6.558078765869141,0.23379608988761902,-20.0579833984375
-6.507537364959717,0.23419290781021118,-20.11208724975586
-6.456797122955322,0.23459231853485107,-20.166292190551758
-6.405915260314941,0.2349965125322342,-20.220787048339844
-6.354828834533691,0.23540325462818146,-20.27537727355957
-6.303596496582031,0.23581482470035553,-20.330259323120117
-6.252160549163818,0.23622915148735046,-20.385257720947266
-6.200516223907471,0.2366461604833603,-20.44036293029785
-6.148777484893799,0.23707030713558197,-20.49595832824707
-6.096764087677002,0.23749476671218872,-20.551456451416016
-6.044593334197998,0.23792414367198944,-20.607254028320312
-5.992260456085205,0.23835842311382294,-20.66335105895996
-5.939705848693848,0.23879535496234894,-20.719547271728516
-5.886928081512451,0.23923492431640625,-20.775846481323242
-5.833981990814209,0.2396795004606247,-20.83245086669922
-5.780864238739014,0.24012905359268188,-20.889360427856445
-5.72751522064209,0.24058125913143158,-20.946367263793945
-5.673989295959473,0.241038516163826,-21.003684997558594
-5.620232105255127,0.24149863421916962,-21.061120986938477
-5.566295146942139,0.2419639378786087,-21.118877410888672
-5.512117862701416,0.24243192374706268,-21.176734924316406
-5.4577531814575195,0.24290505051612854,-21.234907150268555
-5.403198719024658,0.24338339269161224,-21.293399810791016
-5.3483967781066895,0.24386446177959442,-21.35199737548828
-5.293399333953857,0.24435074627399445,-21.41091537475586
-5.238149642944336,0.24483980238437653,-21.469940185546875
-5.1826982498168945,0.24533410370349884,-21.529287338256836
-5.126990795135498,0.24583123624324799,-21.588743209838867
-5.071076393127441,0.24633364379405975,-21.64852523803711
-5.014952182769775,0.2468414455652237,-21.70863914489746
-4.958563804626465,0.24735206365585327,-21.768861770629883
-4.901959419250488,0.24786807596683502,-21.829416275024414
-4.845136642456055,0.24838954210281372,-21.890308380126953
-4.788041591644287,0.24891391396522522,-21.951313018798828
-4.730721473693848,0.24944372475147247,-22.012653350830078
-4.673125267028809,0.2499765157699585,-22.074111938476562
-4.615349292755127,0.2505175769329071,-22.13615608215332
-4.5572428703308105,0.25105899572372437,-22.198081970214844
-4.498945713043213,0.25160861015319824,-22.260581970214844
-4.440361499786377,0.25216126441955566,-22.323205947875977
-4.381534099578857,0.25271958112716675,-22.386180877685547
-4.322412014007568,0.2532808482646942,-22.449264526367188
-4.263086795806885,0.2538506090641022,-22.512950897216797
-4.203461647033691,0.25442343950271606,-22.576753616333008
-4.143535614013672,0.2549993395805359,-22.64067840576172
-4.083349704742432,0.2555810511112213,-22.704959869384766
-4.022943496704102,0.25617140531539917,-22.769853591918945
-3.962183952331543,0.25676217675209045,-22.83462905883789
-3.9011964797973633,0.25736162066459656,-22.90001678466797
-3.8398921489715576,0.25796425342559814,-22.965526580810547
-3.778311252593994,0.2585729658603668,-23.031415939331055
-3.7164082527160645,0.259184867143631,-23.097431182861328
-3.6542606353759766,0.25980567932128906,-23.164073944091797
-3.591784715652466,0.2604297995567322,-23.230850219726562
-3.5290167331695557,0.26106008887290955,-23.29800796508789
-3.4659533500671387,0.26169660687446594,-23.365558624267578
-3.4025509357452393,0.2623364329338074,-23.43323516845703
-3.338846445083618,0.262982577085495,-23.501306533813477
-3.2748351097106934,0.2636350989341736,-23.56977653503418
-3.210512638092041,0.26429399847984314,-23.63864517211914
-3.145839214324951,0.26495635509490967,-23.7076473236084
-3.0808825492858887,0.2656281590461731,-23.777324676513672
-3.0155673027038574,0.26630347967147827,-23.847139358520508
-2.949925422668457,0.26698535680770874,-23.9173641204834
-2.8839521408081055,0.26767387986183167,-23.988000869750977
-2.8176109790802,0.2683659791946411,-24.05878448486328
-2.750962257385254,0.2690678536891937,-24.130260467529297
-2.683938503265381,0.2697734236717224,-24.201885223388672
-2.6165666580200195,0.2704858183860779,-24.273935317993164
-2.548842668533325,0.27120503783226013,-24.34641456604004
-2.4807324409484863,0.2719280421733856,-24.419044494628906
-2.41228985786438,0.27266111969947815,-24.49239158630371
-2.343454122543335,0.27339810132980347,-24.56589698791504
-2.2742483615875244,0.27414214611053467,-24.63984489440918
-2.204667329788208,0.274893194437027,-24.714231491088867
-2.13470721244812,0.2756514847278595,-24.789072036743164
-2.0643630027770996,0.276417076587677,-24.864370346069336
16.60332679748535,0.11162375658750534,-2.514953851699829
16.546600341796875,0.11119124293327332,-2.454456329345703
16.490474700927734,0.11076419055461884,-2.394448757171631
16.434734344482422,0.1103411614894867,-2.3348937034606934
16.37940216064453,0.10992227494716644,-2.275789260864258
16.324460983276367,0.10950739681720734,-2.2171273231506348
15.341102600097656,0.10286848247051239,-2.0356571674346924
14.960941314697266,0.10027898848056793,-1.938523530960083
14.911441802978516,0.09990795701742172,-1.8856122493743896
14.862268447875977,0.0995403453707695,-1.8330860137939453
14.813417434692383,0.09917610883712769,-1.7809396982192993
14.765059471130371,0.09881636500358582,-1.7291892766952515
14.716822624206543,0.09845862537622452,-1.6777865886688232
14.669083595275879,0.09810538589954376,-1.6267707347869873
14.62165641784668,0.09775539487600327,-1.5761160850524902
14.576030731201172,0.09741860628128052,-1.5259745121002197
14.607501983642578,0.09759805351495743,-1.483977198600769
14.651399612426758,0.09786131232976913,-1.4430369138717651
14.695390701293945,0.09812594950199127,-1.4018609523773193
14.73963737487793,0.09839306771755219,-1.3604629039764404
14.784310340881348,0.0986637994647026,-1.3188549280166626
14.82888412475586,0.09893465787172318,-1.2769871950149536
14.873897552490234,0.09920923411846161,-1.2349045276641846
14.91918659210205,0.09948643296957016,-1.1925891637802124
14.96457290649414,0.09976509213447571,-1.1500244140625
15.010415077209473,0.10004759579896927,-1.1072347164154053
15.056380271911621,0.10033172369003296,-1.0641919374465942
15.102639198303223,0.1006186380982399,-1.0209057331085205
15.149365425109863,0.10090949386358261,-0.9773837924003601
15.196017265319824,0.10120068490505219,-0.933587908744812
15.243151664733887,0.10149592906236649,-0.8895503878593445
15.290574073791504,0.10179394483566284,-0.8452554941177368
15.338273048400879,0.10209465771913528,-0.8006990551948547
15.386266708374023,0.10239819437265396,-0.7558788061141968
15.434370040893555,0.10270333290100098,-0.7107826471328735
15.48296070098877,0.10301259905099869,-0.6654250621795654
15.531662940979004,0.10332348942756653,-0.6197857856750488
15.580680847167969,0.10363737493753433,-0.5738704204559326
15.630203247070312,0.10395552963018417,-0.527681827545166
15.679847717285156,0.10427539795637131,-0.4812026917934418
15.729812622070312,0.10459832847118378,-0.434436559677124
15.780301094055176,0.10492566227912903,-0.38738465309143066
15.83089828491211,0.1052546575665474,-0.3400323987007141
15.88181209564209,0.1055867075920105,-0.29238176345825195
15.933053016662598,0.10592188686132431,-0.24442914128303528
15.984627723693848,0.10626024752855301,-0.19617073237895966
16.03653335571289,0.1066017895936966,-0.14760257303714752
16.08878517150879,0.10694660991430283,-0.09872078895568848
16.141386032104492,0.10729475319385529,-0.0495213083922863
16.19432830810547,0.1076461672782898,-9.91583884263575e-16
16.24762725830078,0.10800094902515411,0.049847252666950226
16.301273345947266,0.10835908353328705,0.10002461820840836
16.35527801513672,0.10872063040733337,0.15053634345531464
16.40964698791504,0.10908563435077667,0.20138677954673767
16.464378356933594,0.10945409536361694,0.2525801956653595
16.519437789916992,0.10982581973075867,0.30412036180496216
16.57508659362793,0.11020252853631973,0.3560168147087097
16.630949020385742,0.11058175563812256,0.40826690196990967
17.240991592407227,0.1486309915781021,14.238059997558594
17.720779418945312,0.15315590798854828,14.725957870483398
18.229881286621094,0.15795938670635223,15.243814468383789
18.630666732788086,0.16184811294078827,15.676325798034668
18.625272750854492,0.1622207760810852,15.769637107849121
18.57161521911621,0.16217546164989471,15.822283744812012
18.51804542541504,0.16213220357894897,15.874950408935547
18.464536666870117,0.16209077835083008,15.927618026733398
18.410982131958008,0.1620502769947052,15.980196952819824
18.35737419128418,0.16201062500476837,16.032682418823242
17.04598617553711,0.15084201097488403,14.979795455932617
16.533660888671875,0.14670459926128387,14.619710922241211
16.41573715209961,0.1460551619529724,14.605422973632812
16.32216453552246,0.14562079310417175,14.612131118774414
16.253849029541016,0.14541135728359222,14.641051292419434
16.19512367248535,0.14528818428516388,14.678403854370117
16.138511657714844,0.1451846957206726,14.717531204223633
16.098337173461914,0.14523030817508698,14.771612167358398
16.06097412109375,0.14530296623706818,14.828346252441406
16.0271053314209,0.14540910720825195,14.888419151306152
16.02047348022461,0.1457650512456894,14.97408390045166
16.014463424682617,0.14613008499145508,15.060786247253418
16.06852149963379,0.14704833924770355,15.204794883728027
16.86016845703125,0.15474291145801544,16.052213668823242
16.996610641479492,0.15645289421081543,16.28182029724121
16.933399200439453,0.15633124113082886,16.32118797302246
16.861093521118164,0.15612609684467316,16.351577758789062
16.766380310058594,0.15571311116218567,16.359840393066406
16.67169761657715,0.15529941022396088,16.367599487304688
16.57754135131836,0.15488958358764648,16.375341415405273
16.471546173095703,0.15436777472496033,16.370786666870117
16.32677459716797,0.15347972512245178,16.32677459716797
16.16248321533203,0.1524035930633545,16.261960983276367
2.4486379623413086,0.1024591401219368,15.218255043029785
2.421334981918335,0.10328657925128937,15.348655700683594
2.386345148086548,0.10381341725587845,15.43433952331543
2.3480005264282227,0.10421369969844818,15.501127243041992
2.307749032974243,0.10454513877630234,15.55757999420166
2.2662487030029297,0.10483381897211075,15.607564926147461
2.223440408706665,0.10507415235042572,15.650240898132324
2.1799581050872803,0.10529355704784393,15.689682006835938
2.135732650756836,0.10548718273639679,15.725160598754883
2.0906856060028076,0.10564924031496048,15.755806922912598
2.0452308654785156,0.10579891502857208,15.784477233886719
1.9987921714782715,0.105904720723629,15.806468963623047
1.9518471956253052,0.10598932951688766,15.825159072875977
1.8152049779891968,0.10108424723148346,15.098426818847656
1.7365163564682007,0.09923507273197174,14.827622413635254
1.631474256515503,0.09574085474014282,14.310591697692871
1.5779129266738892,0.09515892714262009,14.22851848602295
1.538137674331665,0.09539986401796341,14.269330024719238
1.4981640577316284,0.09564317762851715,14.310386657714844
1.4579726457595825,0.09588778764009476,14.351527214050293
1.4385061264038086,0.097554050385952,14.605398178100586
1.3965908288955688,0.09775704890489578,14.640144348144531
1.3512965440750122,0.0977301150560379,14.640325546264648
1.3065105676651,0.09774031490087509,14.645930290222168
1.2620124816894531,0.09777449816465378,14.654993057250977
1.217851996421814,0.09783927351236343,14.66850757598877
1.1740527153015137,0.0979401022195816,14.687295913696289
1.130570650100708,0.09807747602462769,14.711433410644531
1.0874247550964355,0.09825760126113892,14.74185848236084
1.0444968938827515,0.09847487509250641,14.777729988098145
1.0017759799957275,0.09873325377702713,14.819646835327148
0.9936347007751465,0.10258731245994568,15.401252746582031
0.945555567741394,0.10249797999858856,15.390815734863281
0.8953149914741516,0.10215365886688232,15.34193229675293
0.8453990817070007,0.1018112376332283,15.293170928955078
0.795815110206604,0.1014719158411026,15.244714736938477
0.7465614080429077,0.1011359766125679,15.196606636047363
0.6976416110992432,0.10080454498529434,15.149017333984375
0.652403712272644,0.10099679976701736,15.179983139038086
0.6085174083709717,0.10144495964050293,15.24928092956543
0.593830943107605,0.10724211484193802,16.122610092163086
0.5440242886543274,0.1071750596165657,16.114274978637695
0.49317675828933716,0.1068701520562172,16.070018768310547
0.44256630539894104,0.10655570775270462,16.024169921875
0.39214977622032166,0.10621632635593414,15.974410057067871
0.34202009439468384,0.10586993396282196,15.923439979553223
0.2921401262283325,0.10549944639205933,15.86868667602539
0.24257463216781616,0.10511824488639832,15.812167167663574
0.19328100979328156,0.10469496250152588,15.749163627624512
0.1443435698747635,0.1042480617761612,15.682453155517578
0.09574752300977707,0.1037256047129631,15.60422420501709
0.047591857612133026,0.10311432927846909,15.512484550476074
2.0154676759047982e-15,0.10939940065145493,16.458086013793945
-3.5696780681610107,0.046392254531383514,5.997297763824463
-3.593043804168701,0.046456679701805115,5.994631290435791
-3.616471290588379,0.046521686017513275,5.991952419281006
-3.6399714946746826,0.046587396413087845,5.98927640914917
-3.663533926010132,0.04665367677807808,5.986586570739746
-3.687161684036255,0.046720560640096664,5.983884811401367
-3.710862874984741,0.04678814485669136,5.981184482574463
-3.734631061553955,0.046856340020895004,5.978472709655762
-3.75846529006958,0.0469251349568367,5.975747585296631
-3.7823760509490967,0.0469946525990963,5.973024368286133
-3.806356906890869,0.04706480726599693,5.970291614532471
-3.8305156230926514,0.04713691771030426,5.967714786529541
-3.8547163009643555,0.047209300100803375,5.965080738067627
-3.878957509994507,0.047281935811042786,5.962386131286621
-3.9032700061798096,0.04735519364476204,5.959676742553711
-3.9276554584503174,0.04742909222841263,5.956955432891846
-3.952119827270508,0.04750370234251022,5.954229354858398
-3.9766645431518555,0.04757903143763542,5.951498985290527
-4.001286029815674,0.04765503108501434,5.948757648468018
-4.025987148284912,0.047731734812259674,5.946009159088135
-4.050767421722412,0.04780912026762962,5.943249702453613
-4.075624942779541,0.047887172549963,5.940476894378662
-4.1005682945251465,0.04796598479151726,5.9377007484436035
-4.125590801239014,0.04804546758532524,5.934910774230957
-4.150698184967041,0.04812569171190262,5.932114601135254
-4.175857067108154,0.048206258565187454,5.929261684417725
-4.201079368591309,0.04828730225563049,5.9263691902160645
-4.2264084815979,0.04836932569742203,5.923497200012207
-4.251857280731201,0.0484524630010128,5.9206624031066895
-4.277407169342041,0.04853649437427521,5.917835712432861
-4.303013801574707,0.04862091690301895,5.914954662322998
-4.328707695007324,0.0487060621380806,5.912060737609863
-4.354490756988525,0.048791952431201935,5.909154891967773
-4.380363941192627,0.04887859523296356,5.9062371253967285
-4.406329154968262,0.04896600544452667,5.903308868408203
-4.432385444641113,0.049054164439439774,5.900366306304932
-4.458541393280029,0.04914316534996033,5.897420883178711
-4.484792709350586,0.049232952296733856,5.894464492797852
-4.511131763458252,0.049323443323373795,5.891486167907715
-4.537576198577881,0.04941482096910477,5.888507843017578
-4.564116477966309,0.049506980925798416,5.885514736175537
-4.590758323669434,0.049599967896938324,5.882513046264648
-4.617500305175781,0.04969377443194389,5.879499435424805
-4.644341468811035,0.04978838190436363,5.876471996307373
-4.671287536621094,0.04988383874297142,5.873435020446777
-4.698336124420166,0.04998012259602547,5.87038516998291
-4.725482940673828,0.050077181309461594,5.867315292358398
-4.752686500549316,0.050174567848443985,5.864172458648682
-4.779988765716553,0.05027273669838905,5.861008644104004
-4.807406425476074,0.050371844321489334,5.857841491699219
-4.834926605224609,0.05047175660729408,5.854654788970947
-4.8625569343566895,0.05057255178689957,5.851456165313721
-4.886063098907471,0.050630342215299606,5.843180179595947
-4.891509056091309,0.05050172656774521,5.813356876373291
-4.896810054779053,0.050373028963804245,5.783546447753906
-4.90209436416626,0.05024555325508118,5.7538981437683105
-4.907375335693359,0.05011943727731705,5.724427223205566
-4.91259765625,0.0499940887093544,5.695065498352051
-4.917809963226318,0.04987000301480293,5.665869235992432
-4.9230146408081055,0.049747176468372345,5.636837482452393
-4.928141117095947,0.04962489381432533,5.607888698577881
-4.933231830596924,0.04950356483459473,5.5790696144104
-4.938239574432373,0.049382712692022324,5.5503249168396
-4.943248271942139,0.049263156950473785,5.521748065948486
-4.9482035636901855,0.049144353717565536,5.493277072906494
-4.95317268371582,0.04902695491909981,5.464983940124512
-4.958099842071533,0.04891039431095123,5.436805248260498
-4.962981224060059,0.04879462346434593,5.408735752105713
-4.967874526977539,0.048680201172828674,5.380836486816406
-4.972724914550781,0.04856657236814499,5.353045463562012
-4.977538108825684,0.048453785479068756,5.325368404388428
-4.9823150634765625,0.048341840505599976,5.297804355621338
-4.987117290496826,0.048231322318315506,5.270416736602783
-4.99190092086792,0.04812178760766983,5.243157863616943
-4.9966721534729,0.048013292253017426,5.216031074523926
-5.001463890075684,0.04790613427758217,5.189069747924805
-5.006229877471924,0.047799862921237946,5.162224292755127
-5.010975360870361,0.04769451171159744,5.135497093200684
-5.015697956085205,0.04759005084633827,5.108885765075684
-5.020402431488037,0.04748651757836342,5.082393169403076
-5.02509069442749,0.04738392308354378,5.056019306182861
-5.030324459075928,0.04728752747178078,5.030324459075928
-5.035029411315918,0.047187209129333496,5.0042290687561035
-5.039717674255371,0.04708779230713844,4.97824764251709
-5.044384002685547,0.046989209949970245,4.9523725509643555
-5.049022674560547,0.04689140245318413,4.926597595214844
-5.053650856018066,0.04679452255368233,4.900937557220459
-5.058259963989258,0.04669848084449768,4.875382900238037
-5.062839508056641,0.04660316929221153,4.849923133850098
-5.0673112869262695,0.04650786519050598,4.824481010437012
-5.071805953979492,0.04641376808285713,4.799182415008545
-5.076294898986816,0.0463205948472023,4.773996829986572
-5.080771446228027,0.046228278428316116,4.748917102813721
-5.08522891998291,0.046136755496263504,4.723936080932617
-5.089665412902832,0.04604599252343178,4.699049949645996
-5.094090938568115,0.0459560751914978,4.674267768859863
-5.098495006561279,0.04586689919233322,4.649577617645264
-5.102877616882324,0.045778464525938034,4.624979019165039
-5.1072492599487305,0.04569084569811821,4.600479602813721
-24.96670150756836,0.16597698628902435,-0.383014440536499
-24.896238327026367,0.16551712155342102,-0.4583359658718109
-24.826169967651367,0.16506138443946838,-0.5332421660423279
-24.756229400634766,0.16460798680782318,-0.6077313423156738
-24.68695068359375,0.16416049003601074,-0.6818208694458008
-24.618061065673828,0.16371703147888184,-0.7555097341537476
-24.549549102783203,0.1632775515317917,-0.8288024663925171
-24.481159210205078,0.1628403216600418,-0.9016944766044617
-24.413410186767578,0.16240879893302917,-0.9742088913917542
-24.34577178955078,0.16197943687438965,-1.0463299751281738
-24.278772354125977,0.1615557223558426,-1.1180845499038696
-24.21187973022461,0.16113413870334625,-1.189453363418579
-24.145357131958008,0.16071639955043793,-1.2604525089263916
-24.07919692993164,0.16030246019363403,-1.331086277961731
-24.013654708862305,0.15989398956298828,-1.401374101638794
-23.94821548461914,0.1594875603914261,-1.4712910652160645
-23.88287925720215,0.15908318758010864,-1.540839433670044
-23.818153381347656,0.15868419408798218,-1.610055685043335
-23.753774642944336,0.1582888513803482,-1.6789277791976929
-23.689743041992188,0.15789715945720673,-1.7474604845046997
-23.625812530517578,0.15750741958618164,-1.8156388998031616
-23.562227249145508,0.15712130069732666,-1.8834846019744873
-23.498979568481445,0.15673872828483582,-1.951001524925232
-23.436317443847656,0.15636132657527924,-2.0182149410247803
-23.373504638671875,0.15598419308662415,-2.0850658416748047
-23.311267852783203,0.15561218559741974,-2.1516213417053223
-23.249361038208008,0.1552436202764511,-2.2178635597229004
-23.187545776367188,0.1548769176006317,-2.283773899078369
-23.12629508972168,0.15451522171497345,-2.3494019508361816
-23.06513023376465,0.15415532886981964,-2.414703845977783
-23.004289627075195,0.15379881858825684,-2.4797074794769287
-22.943771362304688,0.15344569087028503,-2.5444164276123047
-22.88334083557129,0.1530943363904953,-2.6088078022003174
-22.82345199584961,0.15274782478809357,-2.6729369163513184
-22.763652801513672,0.1524030715227127,-2.736754894256592
-22.70416831970215,0.15206162631511688,-2.8002920150756836
-22.64499282836914,0.15172342956066132,-2.863551139831543
-22.58612060546875,0.15138842165470123,-2.9265356063842773
-22.527332305908203,0.15105514228343964,-2.989219903945923
-22.468847274780273,0.15072505176067352,-3.051635265350342
-22.410667419433594,0.1503981351852417,-3.113786220550537
-22.3527889251709,0.15007439255714417,-3.175675868988037
-22.29521369934082,0.14975382387638092,-3.2373082637786865
-22.237709045410156,0.14943483471870422,-3.2986526489257812
-22.180505752563477,0.14911900460720062,-3.3597452640533447
-22.123594284057617,0.14880624413490295,-3.420588970184326
-22.06696891784668,0.14849650859832764,-3.4811859130859375
-22.010425567626953,0.14818842709064484,-3.5415074825286865
-21.954166412353516,0.1478833556175232,-3.601588010787964
-21.898195266723633,0.1475813090801239,-3.6614317893981934
-21.842302322387695,0.14728085696697235,-3.7210066318511963
-21.786901473999023,0.14698481559753418,-3.780386209487915
-21.7315731048584,0.14669030904769897,-3.83950138092041
-21.676313400268555,0.14639733731746674,-3.898353338241577
-21.621540069580078,0.1461087316274643,-3.9570205211639404
-21.566844940185547,0.145821675658226,-4.0154314041137695
-21.512420654296875,0.14553751051425934,-4.073625087738037
-21.458066940307617,0.14525486528873444,-4.131565570831299
-21.40398597717285,0.14497509598731995,-4.18929386138916
-21.35017967224121,0.14469823241233826,-4.246814727783203
-21.29644203186035,0.14442282915115356,-4.304089069366455
-21.243173599243164,0.14415164291858673,-4.36120080947876
-21.18977165222168,0.14388057589530945,-4.41802978515625
-21.1368465423584,0.1436137557029724,-4.474704742431641
-21.083988189697266,0.14334838092327118,-4.531142711639404
-21.03139305114746,0.1430858075618744,-4.587387561798096
-20.978864669799805,0.1428246945142746,-4.643400192260742
-20.926599502563477,0.14256635308265686,-4.699224948883057
-20.874591827392578,0.1423107385635376,-4.754864692687988
-20.82265281677246,0.14205659925937653,-4.81027889251709
-20.770967483520508,0.14180515706539154,-4.865512371063232
-20.719539642333984,0.14155645668506622,-4.920568466186523
-20.668180465698242,0.14130918681621552,-4.975405693054199
-20.617069244384766,0.1410645842552185,-5.030069351196289
-20.566022872924805,0.14082138240337372,-5.084517478942871
-20.51523208618164,0.1405808925628662,-5.138798236846924
-20.464500427246094,0.14034177362918854,-5.19286584854126
-20.414024353027344,0.14010533690452576,-5.246771335601807
-20.36379051208496,0.1398715227842331,-5.300515651702881
-20.31362533569336,0.13963912427425385,-5.354054927825928
-20.26371192932129,0.1394093930721283,-5.407440662384033
-20.2138671875,0.13918109238147736,-5.460625648498535
-20.16426658630371,0.13895538449287415,-5.513659477233887
-20.114730834960938,0.13873104751110077,-5.566495418548584
-20.06543731689453,0.13850931823253632,-5.619184970855713
-20.016382217407227,0.1382901668548584,-5.6717305183410645
-19.96738624572754,0.13807234168052673,-5.724082946777344
-19.918455123901367,0.1378558725118637,-5.776244640350342
-19.86976432800293,0.1376419961452484,-5.828269958496094
-19.82113265991211,0.13742943108081818,-5.880107402801514
-19.772741317749023,0.13721944391727448,-5.931812763214111
-19.72458267211914,0.13701198995113373,-5.983386516571045
-19.67632293701172,0.1368047147989273,-6.034729957580566
-19.628477096557617,0.13660123944282532,-6.086001396179199
-19.580690383911133,0.1363990753889084,-6.137095928192139
-19.5329647064209,0.1361982226371765,-6.188014507293701
-19.4854736328125,0.1359999030828476,-6.238813877105713
-19.43804359436035,0.13580289483070374,-6.289441108703613
-19.390676498413086,0.13560721278190613,-6.339898586273193
-19.343536376953125,0.1354140192270279,-6.3902411460876465
-19.296619415283203,0.13522325456142426,-6.4404706954956055
-19.249765396118164,0.13503383100032806,-6.490536689758301
-19.202999114990234,0.13484589755535126,-6.540448188781738
-19.156452178955078,0.13466039299964905,-6.59025239944458
-19.10996437072754,0.13447615504264832,-6.639896392822266
-19.063541412353516,0.13429327309131622,-6.6893839836120605
-19.01734161376953,0.13411283493041992,-6.738771438598633
-18.971202850341797,0.13393369317054749,-6.7880048751831055
-18.9252872467041,0.13375699520111084,-6.837143898010254
-18.879436492919922,0.13358162343502045,-6.886133193969727
-18.833662033081055,0.13340765237808228,-6.934978485107422
-18.78795051574707,0.13323499262332916,-6.983676910400391
-18.74245834350586,0.13306476175785065,-7.032288074493408
-18.697189331054688,0.13289697468280792,-7.08081579208374
-18.651823043823242,0.13272935152053833,-7.129141807556152
-18.606674194335938,0.13256414234638214,-7.177386283874512
