8.455977980670958516e+00,-6.784471239933687059e-02,-1.962060908316163865e-01
8.441114519414931294e+00,-6.818112101444917528e-02,-1.960950622795610276e-01
8.426232387003928181e+00,-6.851681437382417528e-02,-1.959771195887117234e-01
8.411330242333441731e+00,-6.885417666325288621e-02,-1.958520839451341478e-01
8.396407087025671956e+00,-6.919153895268159715e-02,-1.957200745581178514e-01
8.381461714086562154e+00,-6.952913966068940965e-02,-1.955810169218568650e-01
8.366492871818572041e+00,-6.986769404301362840e-02,-1.954348365305452195e-01
8.351499502239256856e+00,-7.020601000675874559e-02,-1.952816227911500779e-01
8.336480234441786763e+00,-7.054575648197847215e-02,-1.951211819885759202e-01
8.321434025344878194e+00,-7.088597979435640184e-02,-1.949536184309511033e-01
8.306359623250990865e+00,-7.122644152531343309e-02,-1.947788576124696580e-01
8.291255806264906880e+00,-7.156738009342866746e-02,-1.945968697308091966e-01
8.276121322689085957e+00,-7.190951075443940965e-02,-1.944075802801637498e-01
8.260955010232954976e+00,-7.225164141545015184e-02,-1.942110339640168992e-01
8.245755527792006490e+00,-7.259496416935640184e-02,-1.940071115730790940e-01
8.230521623668700215e+00,-7.293924059757905809e-02,-1.937957982061891404e-01
8.215252105770140645e+00,-7.328399386295991746e-02,-1.935770640610246507e-01
8.199945603189497945e+00,-7.362993922123628465e-02,-1.933508495329408494e-01
8.184600834426909444e+00,-7.397683825382905809e-02,-1.931170950172929612e-01
8.169216696796446797e+00,-7.432373728642183153e-02,-1.928758452175645677e-01
8.153791551170378682e+00,-7.467254366764741746e-02,-1.926269362209825364e-01
8.138324354467421529e+00,-7.502158846745210496e-02,-1.923703978298692552e-01
8.122813467559844014e+00,-7.537254061588960496e-02,-1.921060810326127855e-01
8.107257787761717793e+00,-7.572420802006440965e-02,-1.918340454338579026e-01
8.091656033573180196e+00,-7.607563700566011278e-02,-1.915542612312822190e-01
8.076006416854887959e+00,-7.642968859562593309e-02,-1.912665049074678270e-01
8.060307864723235127e+00,-7.678397860417085496e-02,-1.909708658693818895e-01
8.044558887062102315e+00,-7.713969912419038621e-02,-1.906672249077348558e-01
8.028757934150725362e+00,-7.749661173710542528e-02,-1.903555075167207566e-01
8.012903813896208760e+00,-7.785447802433687059e-02,-1.900357136963395921e-01
7.996994678554564473e+00,-7.821401324162202684e-02,-1.897076944349794236e-01
7.981029455242186543e+00,-7.857402529606538621e-02,-1.893714795349626390e-01
7.965006236610442159e+00,-7.893618311772065965e-02,-1.890268752811937181e-01
7.948923830566435811e+00,-7.929881777653413621e-02,-1.886739412783174363e-01
7.932780568180113789e+00,-7.966312136540132371e-02,-1.883125285147218553e-01
7.916574542102843282e+00,-8.002980914005952684e-02,-1.879424879787950364e-01
7.900304858264952657e+00,-8.039673533329683153e-02,-1.875639388798265306e-01
7.883969370899230000e+00,-8.076533045658784715e-02,-1.871766427992372361e-01
7.867566470680266377e+00,-8.113607134709077684e-02,-1.867805401323823777e-01
7.851094667491942403e+00,-8.150800433048921434e-02,-1.863755712746171800e-01
7.834552471218138692e+00,-8.188089098820405809e-02,-1.859617064236192552e-01
7.817937855300932881e+00,-8.225592341313081590e-02,-1.855387667654542772e-01
7.801249031600981709e+00,-8.263262476811128465e-02,-1.851066628931550828e-01
7.784484390792876241e+00,-8.301123347172456590e-02,-1.846653352020768968e-01
7.767642144737273213e+00,-8.339127268681245653e-02,-1.842146942852525560e-01
7.750720624504118916e+00,-8.377274241337495653e-02,-1.837546507357148973e-01
7.733717684326201436e+00,-8.415659632572847215e-02,-1.832850406406907884e-01
7.716631476459532735e+00,-8.454235758671480028e-02,-1.828057894943742601e-01
7.699459974346190450e+00,-8.493074145207124559e-02,-1.823167482851533738e-01
7.682202045497923848e+00,-8.531936373600679246e-02,-1.818179617165117112e-01
7.664854769287138936e+00,-8.571084704289155809e-02,-1.813091466663865892e-01
7.647416536388426778e+00,-8.610471453556733934e-02,-1.807902584312944261e-01
7.629885141429930684e+00,-8.650072779545503465e-02,-1.802611330984620897e-01
7.612258975086241719e+00,-8.689793314823823778e-02,-1.797217557667283860e-01
7.594535653171568867e+00,-8.729728426823335496e-02,-1.791719327209977952e-01
7.576712433872252461e+00,-8.770021166691499559e-02,-1.786114404438524095e-01
7.558787886676817891e+00,-8.810456957707124559e-02,-1.780402789352922288e-01
7.540759627399474141e+00,-8.851131167301851121e-02,-1.774582693813829271e-01
7.522625510273009297e+00,-8.892019953617769090e-02,-1.768653223751573411e-01
7.504382793483763692e+00,-8.933147158512788621e-02,-1.762612293003587571e-01
7.486028973636656758e+00,-8.974631991276460496e-02,-1.756457666395692674e-01
7.467562381801634785e+00,-9.016259875187593309e-02,-1.750189641951112596e-01
7.448980156955748555e+00,-9.058173861393647996e-02,-1.743805835484056321e-01
7.430280034122496602e+00,-9.100302424320894090e-02,-1.737305054901628343e-01
7.411459033069640157e+00,-9.142764773258882371e-02,-1.730684617994813768e-01
7.392514769611388203e+00,-9.185489382633882371e-02,-1.723943630693940965e-01
7.373444501934081075e+00,-9.228500094303804246e-02,-1.717080304859666673e-01
7.354245488224059102e+00,-9.271844591984468309e-02,-1.710092554329423753e-01
7.334915225086241719e+00,-9.315451350102144090e-02,-1.702979187010316697e-01
7.315450732288390157e+00,-9.359368052372651903e-02,-1.695737818716554490e-01
7.295849506435423848e+00,-9.403523173222261278e-02,-1.688367555378465501e-01
7.276107494411498067e+00,-9.448107447514253465e-02,-1.680864522694139329e-01
7.256223265705138203e+00,-9.492882456669526903e-02,-1.673229316710023729e-01
7.236192290363341328e+00,-9.538086619267183153e-02,-1.665457467077760545e-01
7.216012064991026875e+00,-9.583624567875581590e-02,-1.657547930716066209e-01
7.195679609355956075e+00,-9.629448618778901903e-02,-1.649498919485597459e-01
7.175191704807311055e+00,-9.675582613835054246e-02,-1.641308347223787156e-01
7.154543582973509785e+00,-9.722264971623140184e-02,-1.632971743582277147e-01
7.133733574924498555e+00,-9.769209589848237840e-02,-1.624489406584291307e-01
7.112757985172301289e+00,-9.816416468510347215e-02,-1.615858803032426683e-01
7.091612164554625508e+00,-9.864100184330659715e-02,-1.607075909613160936e-01
7.070293013629942891e+00,-9.912189211735444871e-02,-1.598138938187150804e-01
7.048796360073119160e+00,-9.960731234440522996e-02,-1.589044759510545579e-01
7.027119581279784200e+00,-1.000953551758261284e-01,-1.579792628525285569e-01
7.005257789669066426e+00,-1.005879279602499565e-01,-1.570378074883012620e-01
6.983206693706542012e+00,-1.010852691162558159e-01,-1.560798416374711839e-01
6.960962359485655782e+00,-1.015871402252646050e-01,-1.551050821779756395e-01
6.938521091518431660e+00,-1.020928260315390190e-01,-1.541133055923967210e-01
6.915878240642577168e+00,-1.026028033722372612e-01,-1.531041691540269700e-01
9.774168436107665059e+00,-3.844054903874116746e-02,-2.027543316124467698e-01
9.756477896747618672e+00,-3.884133067021089403e-02,-2.032359669445543138e-01
9.738884036121397969e+00,-3.924044337162690965e-02,-2.037084082602052537e-01
9.721384231624632832e+00,-3.963669505009370653e-02,-2.041718194721727220e-01
9.703976575908690450e+00,-4.003056254276948778e-02,-2.046262899874238816e-01
9.686659638462096211e+00,-4.042371477970796434e-02,-2.050718198059587327e-01
9.669430677471190450e+00,-4.081376757511812059e-02,-2.055086622475175706e-01
9.652287904796629903e+00,-4.120191302189546434e-02,-2.059368620155839769e-01
9.635229651508360860e+00,-4.158815112003999559e-02,-2.063564638136415330e-01
9.618254248676329610e+00,-4.197367396244722215e-02,-2.067675570486574022e-01
9.601359073696166035e+00,-4.235609736332612840e-02,-2.071703503368882981e-01
9.584542517242461201e+00,-4.273661341557222215e-02,-2.075648585794954148e-01
9.567803148803740498e+00,-4.311569895634370653e-02,-2.079511562822847215e-01
9.551138941822081563e+00,-4.349311556706147996e-02,-2.083293328522233812e-01
9.534548108158141133e+00,-4.386886324772554246e-02,-2.086995074986009446e-01
9.518029455719023701e+00,-4.424365725407319871e-02,-2.090616504190950242e-01
9.501580063877135274e+00,-4.461535181889253465e-02,-2.094160447357683030e-01
9.485199634609251973e+00,-4.498680796513276903e-02,-2.097625265358476487e-01
9.468885545311003682e+00,-4.535611834416108934e-02,-2.101013640402345506e-01
9.452636723098784444e+00,-4.572423663029390184e-02,-2.104325125454454271e-01
9.436451320228606221e+00,-4.609068598637300340e-02,-2.107560912607698289e-01
9.420327846584349629e+00,-4.645618166813569871e-02,-2.110721299885301439e-01
9.404264752445250508e+00,-4.682024683842378465e-02,-2.113807330368547288e-01
9.388260249671965596e+00,-4.718264307865815965e-02,-2.116819898127107469e-01
9.372312848148375508e+00,-4.754313197025972215e-02,-2.119759599207429734e-01
9.356421653804808614e+00,-4.790362086186128465e-02,-2.122625837563066331e-01
9.340584342060118672e+00,-4.826196398625093309e-02,-2.125420699356584397e-01
9.324800138053923604e+00,-4.861983027348237840e-02,-2.128143737553148118e-01
9.309066896019011494e+00,-4.897531237492280809e-02,-2.130796740292100755e-01
9.293383900699645039e+00,-4.933055605778413621e-02,-2.133378664492158738e-01
9.277749483165770528e+00,-4.968508448490815965e-02,-2.135890702246217576e-01
9.262162034091979024e+00,-5.003794398197847215e-02,-2.138333896635560838e-01
9.246620242176085469e+00,-5.038937296757417528e-02,-2.140708545683412400e-01
9.231123094139128682e+00,-5.074056353459077684e-02,-2.143014202354936448e-01
9.215668921051054951e+00,-5.109080042729097215e-02,-2.145252058743028489e-01
9.200256232795744893e+00,-5.143936838993745653e-02,-2.147423157928972093e-01
9.184883956489592549e+00,-5.178722109684663621e-02,-2.149527052877931443e-01
9.169550959644347188e+00,-5.213507380375581590e-02,-2.151563743589906541e-01
9.154255454120665547e+00,-5.248078074345308153e-02,-2.153535316227464524e-01
9.138996545848875996e+00,-5.282624926457124559e-02,-2.155440578697709886e-01
9.123772804317503926e+00,-5.317100252995210496e-02,-2.157280425070314256e-01
9.108583007631331441e+00,-5.351480212101655809e-02,-2.159055302380113450e-01
9.093425784883528706e+00,-5.385740961918550340e-02,-2.160765955685167161e-01
9.078300152597456929e+00,-5.420025553593355028e-02,-2.162411490915803758e-01
9.063204710063963887e+00,-5.454214777836519090e-02,-2.163993100164918748e-01
9.048138086376219746e+00,-5.488284792790132371e-02,-2.165511528490571824e-01
9.033099238452940938e+00,-5.522283282170015184e-02,-2.166966626881151048e-01
9.018087004003554341e+00,-5.556234087834077684e-02,-2.168358395336656419e-01
9.003100220737486836e+00,-5.590184893498140184e-02,-2.169686833857087938e-01
8.988137428340941426e+00,-5.623992648014741746e-02,-2.170953432558564988e-01
8.973197762546568867e+00,-5.657824244389253465e-02,-2.172156999348192064e-01
8.958279822645216939e+00,-5.691536631474214403e-02,-2.173298875330476609e-01
8.943382595357924458e+00,-5.725249018559175340e-02,-2.174378464458970872e-01
8.928504858789473531e+00,-5.758937563786226121e-02,-2.175396362780122606e-01
8.913645361242323872e+00,-5.792530741581636278e-02,-2.176353017328767625e-01
8.898803059635191914e+00,-5.826076235661226121e-02,-2.177248279093293992e-01
8.883976851282149312e+00,-5.859669413456636278e-02,-2.178081999062089769e-01
8.869165544090300557e+00,-5.893214907536226121e-02,-2.178854624269990770e-01
8.854367931065588948e+00,-5.926688876042085496e-02,-2.179566899775056688e-01
8.839582924423247334e+00,-5.960091318974214403e-02,-2.180218378542451707e-01
8.824809466180830952e+00,-5.993565287480073778e-02,-2.180808762548951951e-01
8.810046319541960713e+00,-6.026920046696382371e-02,-2.181339243887452928e-01
8.795292426524191853e+00,-6.060274805912690965e-02,-2.181809226511506883e-01
8.780546714243918416e+00,-6.093677248844819871e-02,-2.182218412397889939e-01
8.765807945904761311e+00,-6.126960482487397996e-02,-2.182568142651109544e-01
8.751075115678339955e+00,-6.160291399845796434e-02,-2.182857225178270189e-01
8.736347053823500630e+00,-6.193574633488374559e-02,-2.183086405037431565e-01
8.721622680006056783e+00,-6.226881708988862840e-02,-2.183255384205369798e-01
8.706900891540080067e+00,-6.260212626347261278e-02,-2.183363864658861009e-01
8.692180541036158559e+00,-6.293495859989839403e-02,-2.183412889479188768e-01
8.677460533258944508e+00,-6.326755251774507371e-02,-2.183402011631517259e-01
8.662739776698380467e+00,-6.360038485417085496e-02,-2.183330933092622606e-01
8.648017149110764024e+00,-6.393321719059663621e-02,-2.183199951885728685e-01
8.633291546878844258e+00,-6.426652636418062059e-02,-2.183008471964387742e-01
8.618561856140821931e+00,-6.459959711918550340e-02,-2.182757238386659471e-01
8.603826972348123547e+00,-6.493242945561128465e-02,-2.182446102140931932e-01
8.589085773257046696e+00,-6.526573862919526903e-02,-2.182074467180757371e-01
8.574337140349179265e+00,-6.559952463993745653e-02,-2.181642482517747728e-01
8.559579987702399251e+00,-6.593283381352144090e-02,-2.181150595186738816e-01
8.544813167927294728e+00,-6.626638140568452684e-02,-2.180598060129670945e-01
8.530035559711485860e+00,-6.660040583500581590e-02,-2.179985026358156053e-01
8.515246015665560719e+00,-6.693538393864351121e-02,-2.179310897825746385e-01
8.500443462905913350e+00,-6.726988520512300340e-02,-2.178576419590501634e-01
8.485626731691390034e+00,-6.760486330876069871e-02,-2.177780846594362107e-01
8.470794682083159444e+00,-6.794007983097749559e-02,-2.176924178837327806e-01
8.455946211395293233e+00,-6.827529635319429246e-02,-2.176006714342622606e-01
8.441080112633734700e+00,-6.861146654972749559e-02,-2.175027559040574876e-01
8.426195298013716695e+00,-6.894763674626069871e-02,-2.173986861942796556e-01
8.411290515837698933e+00,-6.928476061711030809e-02,-2.172884027002839891e-01
8.396364648518591878e+00,-6.962236132511812059e-02,-2.171719352243928758e-01
8.381416563568144795e+00,-6.996043887028413621e-02,-2.170492390631227342e-01
8.366445068893462178e+00,-7.029875483402925340e-02,-2.169203142164735643e-01
8.351449076709776875e+00,-7.063659396061616746e-02,-2.167851904867677537e-01
8.336427067098647115e+00,-7.097681727299409715e-02,-2.166436294554262010e-01
8.321378145990401265e+00,-7.131704058537202684e-02,-2.164958099363832322e-01
8.306301061687499043e+00,-7.165750231632905809e-02,-2.163416574238328782e-01
8.291194562492400166e+00,-7.199844088444429246e-02,-2.161811272142915574e-01
8.276057337102919575e+00,-7.234080996403413621e-02,-2.160141448019533006e-01
8.260888253030806538e+00,-7.268341746220308153e-02,-2.158407250879793016e-01
8.245686058578520772e+00,-7.302674021610933153e-02,-2.156608531712083665e-01
8.230449412641554829e+00,-7.337101664433198778e-02,-2.154744247435121385e-01
8.215177212533980367e+00,-7.371553149113374559e-02,-2.152814994095353929e-01
8.199867968139677998e+00,-7.406171526798921434e-02,-2.150819430588273851e-01
8.184520427761107442e+00,-7.440861430058198778e-02,-2.148757407902269212e-01
8.169133458910017964e+00,-7.475599017033296434e-02,-2.146628926037340013e-01
8.153705631074934956e+00,-7.510455813297944871e-02,-2.144433388947038499e-01
8.138235662755995747e+00,-7.545360293278413621e-02,-2.142170349596528856e-01
8.122721914825469014e+00,-7.580503191837983934e-02,-2.139838615892915574e-01
8.107163493213683125e+00,-7.615646090397554246e-02,-2.137438932894258348e-01
8.091558937606841084e+00,-7.650812830815034715e-02,-2.134970704554109422e-01
8.075906519470244405e+00,-7.686194147953706590e-02,-2.132432440756349412e-01
8.060205225524931905e+00,-7.721646990666108934e-02,-2.129824439524202195e-01
8.044453327236205098e+00,-7.757219042668062059e-02,-2.127145806787996141e-01
8.028649572906523701e+00,-7.792934145817476121e-02,-2.124396095512895433e-01
8.012792532024413106e+00,-7.828720774540620653e-02,-2.121574858664064256e-01
7.996880535659819600e+00,-7.864698138127046434e-02,-2.118681202171830980e-01
7.980912451324492451e+00,-7.900723185429292528e-02,-2.115715275047807542e-01
7.964886371669798848e+00,-7.936938967594819871e-02,-2.112675438164262620e-01
7.948801164207488057e+00,-7.973178591618257371e-02,-2.109562287567643968e-01
7.932654981193572041e+00,-8.009632792362886278e-02,-2.106374035118608323e-01
7.916446034488707539e+00,-8.046301569828706590e-02,-2.103109786747484056e-01
7.900173370418578145e+00,-8.082994189152437059e-02,-2.099770287512330857e-01
7.883834843215971944e+00,-8.119925227055269090e-02,-2.096353600262193528e-01
7.867429141578703877e+00,-8.156951632389741746e-02,-2.092859575985460130e-01
7.850954536972075459e+00,-8.194121088871675340e-02,-2.089287469624070970e-01
7.834409181652098653e+00,-8.231481280216890184e-02,-2.085636238096742479e-01
7.817791585502654073e+00,-8.268960680851655809e-02,-2.081905285357026902e-01
7.801099781570464131e+00,-8.306654658207612840e-02,-2.078093717335252610e-01
7.784331862506896016e+00,-8.344563212284761278e-02,-2.074200043915300218e-01
7.767486815032988545e+00,-8.382543291935640184e-02,-2.070225010155229417e-01
7.750562195358305928e+00,-8.420714106449800340e-02,-2.066166678904085008e-01
7.733556215343504903e+00,-8.459099497685151903e-02,-2.062024156092195359e-01
7.716466967639952657e+00,-8.497675623783784715e-02,-2.057796398638276902e-01
7.699292485294371602e+00,-8.536490168461519090e-02,-2.053482661484269944e-01
7.682031397399931905e+00,-8.575376238712983934e-02,-2.049082497595338670e-01
7.664680902538329121e+00,-8.614572253117280809e-02,-2.044593820808915940e-01
7.647239629802733418e+00,-8.653911318669038621e-02,-2.040016631125001756e-01
7.629705016193419453e+00,-8.693560328373628465e-02,-2.035348842381028978e-01
7.612075631198912617e+00,-8.733304705509858934e-02,-2.030590603588609544e-01
7.594349090633421895e+00,-8.773263659367280809e-02,-2.025740275620012132e-01
7.576522771892577168e+00,-8.813532557377534715e-02,-2.020796070335893480e-01
7.558594886837035176e+00,-8.854016032108980028e-02,-2.015757391689805833e-01
7.540563289699584004e+00,-8.894714083561616746e-02,-2.010623345612077562e-01
7.522425953922301289e+00,-8.935555186161714403e-02,-2.005392740009813157e-01
7.504179899272948262e+00,-8.976730074772554246e-02,-2.000063637732057420e-01
7.485822979984313008e+00,-9.018167223820405809e-02,-1.994634846685914842e-01
7.467352931079894063e+00,-9.059842791447358934e-02,-1.989105323790101854e-01
7.448767249164610860e+00,-9.101804461369233934e-02,-1.983473578928499070e-01
7.430064026889830586e+00,-9.143909182438569871e-02,-1.977739165066270677e-01
7.411239330348998067e+00,-9.186419215092378465e-02,-1.971898654936342088e-01
7.392291729030638692e+00,-9.229143824467378465e-02,-1.965952346561937181e-01
7.373218004283934590e+00,-9.272154536137300340e-02,-1.959897855757264939e-01
7.354015533504515645e+00,-9.315522875675874559e-02,-1.953733692406205980e-01
7.334681813297301289e+00,-9.359129633793550340e-02,-1.947458664415864793e-01
7.315213863430052754e+00,-9.403022494206147996e-02,-1.941070834635286180e-01
7.295608822879820821e+00,-9.447225298771577684e-02,-1.934568861959962693e-01
7.275863353786498067e+00,-9.491833414921480028e-02,-1.927950213192491380e-01
7.255975548801451680e+00,-9.536608424076753465e-02,-1.921214888332872239e-01
7.235940997180968282e+00,-9.581812586674409715e-02,-1.914359013079194871e-01
7.215756957111388203e+00,-9.627398218998628465e-02,-1.907381395338563768e-01
7.195420686779051778e+00,-9.673246111759858934e-02,-1.900280843018083421e-01
7.174929086742430684e+00,-9.719403948673921434e-02,-1.893055567978410569e-01
7.154277627048521992e+00,-9.766014780888276903e-02,-1.885701993940858689e-01
7.133463685092955586e+00,-9.812983240971284715e-02,-1.878219226835756150e-01
7.112484161434203145e+00,-9.860237803349214403e-02,-1.870605478523759690e-01
7.091334406909972188e+00,-9.907969202885347215e-02,-1.862857619761018602e-01
7.070011679706603047e+00,-9.956010546574312059e-02,-1.854974160431413499e-01
7.048510973033934590e+00,-1.000460025299521050e-01,-1.846951524256257859e-01
7.026830141124754903e+00,-1.005345221985312065e-01,-1.838789562223939744e-01
7.004964296398192403e+00,-1.010273334015341362e-01,-1.830484698055772630e-01
6.982909504947691914e+00,-1.015241977203817925e-01,-1.822034249542741624e-01
6.960660998401671407e+00,-1.020263072479696831e-01,-1.813435385464219896e-01
6.938215438900023457e+00,-1.025324698914023003e-01,-1.804686168669252244e-01
6.915568534908324239e+00,-1.030424472321005425e-01,-1.795784363983659593e-01
9.773903076229125020e+00,-3.788837160954194871e-02,-2.261757383583574144e-01
9.756216351566344258e+00,-3.828843798527437059e-02,-2.265929559706239549e-01
9.738626424846678731e+00,-3.868707384953218309e-02,-2.270021865604905931e-01
9.721130911884337422e+00,-3.908380236515718309e-02,-2.274035195349244920e-01
9.703727428493529317e+00,-3.947790827641206590e-02,-2.277971486090211717e-01
9.686414424953490254e+00,-3.987034525761323778e-02,-2.281830737827806321e-01
9.669189397869139668e+00,-4.026039805302339403e-02,-2.285614440678148118e-01
9.652050678310423848e+00,-4.064830508122163621e-02,-2.289323190687684861e-01
9.634996239719420430e+00,-4.103430476078706590e-02,-2.292957881926088182e-01
9.618024711189299580e+00,-4.141935076603608934e-02,-2.296518663404970018e-01
9.601133589324980733e+00,-4.180225100407319871e-02,-2.300007174252061692e-01
9.584320847568541524e+00,-4.218229021916108934e-02,-2.303424457548646775e-01
9.567585293827086446e+00,-4.256137575993257371e-02,-2.306770513294725267e-01
9.550925139961272237e+00,-4.293903078922944871e-02,-2.310045788525132981e-01
9.534338180599242207e+00,-4.331430163273530809e-02,-2.313252071379213182e-01
9.517823164043456075e+00,-4.368885722050386278e-02,-2.316388914822130052e-01
9.501377706108122823e+00,-4.406055178532319871e-02,-2.319458554028062669e-01
9.485001031932860371e+00,-4.443176951298433153e-02,-2.322459647892503587e-01
9.468690876541167256e+00,-4.480131831059175340e-02,-2.325394282578019944e-01
9.452445690212279317e+00,-4.516895975956636278e-02,-2.328262756107835618e-01
9.436263982830077168e+00,-4.553517069706636278e-02,-2.331065515516786424e-01
9.420144264278441426e+00,-4.590042796024995653e-02,-2.333803007839708177e-01
9.404084865627318379e+00,-4.626449313053804246e-02,-2.336475978134660569e-01
9.388084117946654317e+00,-4.662665095219331590e-02,-2.339085320471315232e-01
9.372140531120329854e+00,-4.698737826237397996e-02,-2.341631183861284105e-01
9.356253032264739034e+00,-4.734786715397554246e-02,-2.344113866327791063e-01
9.340419416008025166e+00,-4.770597185978608934e-02,-2.346534708975343553e-01
9.324638788280516621e+00,-4.806359972843843309e-02,-2.348893413780717698e-01
9.308909241733580586e+00,-4.841884341129976121e-02,-2.351191321848420945e-01
9.293229941902190205e+00,-4.877408709416108934e-02,-2.353427539108781663e-01
9.277599100647002217e+00,-4.912837710270601121e-02,-2.355603406666307298e-01
9.262015227851897237e+00,-4.948099818119722215e-02,-2.357719818590669481e-01
9.246477191028624532e+00,-4.983266558537202684e-02,-2.359776327847032396e-01
9.230983559665709492e+00,-5.018337931523042528e-02,-2.361773530481843797e-01
9.215532962856322285e+00,-5.053361620793062059e-02,-2.363712022541551439e-01
9.200123910484343526e+00,-5.088194575199800340e-02,-2.365592400072603074e-01
9.184755270061522481e+00,-5.123003687748628465e-02,-2.367414663074998704e-01
9.169425730285674092e+00,-5.157717432865815965e-02,-2.369178960560350267e-01
9.154133860645323750e+00,-5.192311968693452684e-02,-2.370886484621553270e-01
9.138878469047575948e+00,-5.226834978947358934e-02,-2.372536788223771897e-01
9.123658244190245625e+00,-5.261286463627534715e-02,-2.374130467413453904e-01
9.108472053585082051e+00,-5.295690264591890184e-02,-2.375667671202211229e-01
9.093318317708998677e+00,-5.329927172550874559e-02,-2.377149293659715501e-01
9.078196172294646260e+00,-5.364187922367769090e-02,-2.378574738739518968e-01
9.063104276237517354e+00,-5.398377146610933153e-02,-2.379944751499681321e-01
9.048041199026137349e+00,-5.432447161564546434e-02,-2.381259778975038377e-01
9.033005897579222676e+00,-5.466445650944429246e-02,-2.382519970177202073e-01
9.017997120199233052e+00,-5.500372614750581590e-02,-2.383725623129396287e-01
9.003013794002562520e+00,-5.534299578556733934e-02,-2.384876439808397142e-01
8.988054548082381245e+00,-5.568131174931245653e-02,-2.385973165272264329e-01
8.973118369159728047e+00,-5.601938929447847215e-02,-2.387015799520997850e-01
8.958203916130095479e+00,-5.635651316532808153e-02,-2.388004789589433519e-01
8.943310116109877583e+00,-5.669339861759858934e-02,-2.388939986465959397e-01
8.928435896215468404e+00,-5.703052248844819871e-02,-2.389821390150575486e-01
8.913579855737715718e+00,-5.736621584782319871e-02,-2.390650192736177293e-01
8.898741070804625508e+00,-5.770190920719819871e-02,-2.391425500153093187e-01
8.883918289718657491e+00,-5.803736414799409715e-02,-2.392147759436158982e-01
8.869110454497366902e+00,-5.837281908878999559e-02,-2.392816821573762742e-01
8.854316298542052266e+00,-5.870755877384858934e-02,-2.393433729647188035e-01
8.839534719166785237e+00,-5.904134478459077684e-02,-2.393998185633210984e-01
8.824764717993765828e+00,-5.937584605107026903e-02,-2.394509593485383836e-01
8.810004998621970174e+00,-5.970915522465425340e-02,-2.394969145296602098e-01
8.795254607377081868e+00,-6.004317965397554246e-02,-2.395375946997194139e-01
8.780512292561560628e+00,-6.037648882755952684e-02,-2.395730594633607713e-01
8.765776966390639302e+00,-6.070908274540620653e-02,-2.396033684252290574e-01
8.751047585783034322e+00,-6.104263033756929246e-02,-2.396283874748735276e-01
8.736322973547011372e+00,-6.137546267399507371e-02,-2.396482358215837327e-01
8.721602034447222707e+00,-6.170805659184175340e-02,-2.396628836630372850e-01
8.706883703050642964e+00,-6.204184260258394090e-02,-2.396722564934282151e-01
8.692166783539086339e+00,-6.237467493900972215e-02,-2.396765033243684617e-01
8.677450221655398366e+00,-6.270726885685640184e-02,-2.396755496500520555e-01
8.662732901675134656e+00,-6.304033961186128465e-02,-2.396693805693178025e-01
8.648013711599141118e+00,-6.337293352970796434e-02,-2.396580258844880906e-01
8.633291546878844258e+00,-6.370576586613374559e-02,-2.396414855955629197e-01
8.618565297377735135e+00,-6.403883662113862840e-02,-2.396197149990587083e-01
8.603833849234014508e+00,-6.437190737614351121e-02,-2.395927438972978440e-01
8.589096096036463734e+00,-6.470497813114839403e-02,-2.395605722902803270e-01
8.574350916472702977e+00,-6.503852572331147996e-02,-2.395231703756837693e-01
8.559597198543578145e+00,-6.537207331547456590e-02,-2.394805381535081712e-01
8.544833835837870595e+00,-6.570514407047944871e-02,-2.394327054260759202e-01
8.530059669790297505e+00,-6.603940691837983934e-02,-2.393795827864198533e-01
8.515273597714930531e+00,-6.637390818485933153e-02,-2.393212149380235521e-01
8.500474502024680135e+00,-6.670840945133882371e-02,-2.392575869797258226e-01
8.485661212978392598e+00,-6.704338755497651903e-02,-2.391886840103654710e-01
8.470832635340720174e+00,-6.737860407719331590e-02,-2.391144911287813035e-01
8.455987621722250935e+00,-6.771405901798921434e-02,-2.390350083349733201e-01
8.441124994931250569e+00,-6.804999079594331590e-02,-2.389501909254579393e-01
8.426243652281790730e+00,-6.838616099247651903e-02,-2.388600538013963548e-01
8.411342356977492329e+00,-6.872304644474702684e-02,-2.387645373581437913e-01
8.396420036134749409e+00,-6.906017031559663621e-02,-2.386636862991838304e-01
8.381475423154860493e+00,-6.939824786076265184e-02,-2.385574112175493089e-01
8.366507355747252461e+00,-6.973680224308687059e-02,-2.384457121132402269e-01
8.351514910039931294e+00,-7.007464136967378465e-02,-2.383286783932237474e-01
8.336496387300520894e+00,-7.041486468205171434e-02,-2.382060716389207689e-01
8.321451012668639180e+00,-7.075484957585054246e-02,-2.380780408619432298e-01
8.306377415237456319e+00,-7.109531130680757371e-02,-2.379445115564851609e-01
8.291274462518721577e+00,-7.143624987492280809e-02,-2.378054688213853685e-01
8.276140724000960347e+00,-7.177861895451265184e-02,-2.376608232496766893e-01
8.260975246009856221e+00,-7.212074961552339403e-02,-2.375106493471650926e-01
8.245776538429289815e+00,-7.246431078800874559e-02,-2.373548279045610276e-01
8.230543498573332784e+00,-7.280834879765230028e-02,-2.371933738230256883e-01
8.215274844942122456e+00,-7.315286364445405809e-02,-2.370262573002366868e-01
8.199969117221861836e+00,-7.349904742130952684e-02,-2.368534038303880540e-01
8.184625212726622578e+00,-7.384594645390230028e-02,-2.366748134134797898e-01
8.169241820154219624e+00,-7.419332232365327684e-02,-2.364904562471895066e-01
8.153817508993178365e+00,-7.454212870487886278e-02,-2.363002578257112352e-01
8.138351176557570454e+00,-7.489093508610444871e-02,-2.361042628525285569e-01
8.122841124115019795e+00,-7.524188723454194871e-02,-2.359023074148683397e-01
8.107286219177275655e+00,-7.559379305729585496e-02,-2.356944362162141648e-01
8.091685299453764912e+00,-7.594546046147065965e-02,-2.354806492565660325e-01
8.076036576805144307e+00,-7.629903521427827684e-02,-2.352608124254731981e-01
8.060338859138518330e+00,-7.665356364140230028e-02,-2.350348959206132737e-01
8.044590715942412373e+00,-7.700928416142183153e-02,-2.348028997419862596e-01
8.028790716705351826e+00,-7.736595835575776903e-02,-2.345647493837861863e-01
8.012937252101927754e+00,-7.772430148014741746e-02,-2.343203703402070848e-01
7.997028951225310323e+00,-7.808383669743257371e-02,-2.340697328089265672e-01
7.981064621982604024e+00,-7.844384875187593309e-02,-2.338128516911058274e-01
7.965042297420531270e+00,-7.880576815495210496e-02,-2.335495630739717332e-01
7.948960785446196553e+00,-7.916840281376558153e-02,-2.332798967598466722e-01
7.932818238315611836e+00,-7.953318323979097215e-02,-2.330037186382798997e-01
7.916613225517302510e+00,-7.989939417729097215e-02,-2.327210138081102220e-01
7.900344316539793965e+00,-8.026655878910737840e-02,-2.324317673681764451e-01
7.884009544429808614e+00,-8.063563074955659715e-02,-2.321358154057054368e-01
7.867607717094450948e+00,-8.100589480290132371e-02,-2.318331877230195848e-01
7.851136867580443379e+00,-8.137758936772065965e-02,-2.315237800119905320e-01
7.834595386562376973e+00,-8.175095286259370653e-02,-2.312075326679735032e-01
7.817981605110198018e+00,-8.212598528752046434e-02,-2.308843711851625291e-01
7.801293675479918477e+00,-8.250292506108003465e-02,-2.305542210577516404e-01
7.784529809532195088e+00,-8.288177218327241746e-02,-2.302169928787736741e-01
7.767688338336974141e+00,-8.326228823551851121e-02,-2.298726419447450486e-01
7.750767831382781026e+00,-8.364328112492280809e-02,-2.295211682556657640e-01
7.733765785274535176e+00,-8.402713503727632371e-02,-2.291623482941179124e-01
7.716680531082182881e+00,-8.441289629826265184e-02,-2.287961671589403001e-01
7.699509982643157002e+00,-8.480104174503999559e-02,-2.284225056408433763e-01
7.682252769050627705e+00,-8.519014086613374559e-02,-2.280413786409883348e-01
7.664906386909514424e+00,-8.558210101017671434e-02,-2.276526073454408494e-01
7.647468988475829121e+00,-8.597573008427339403e-02,-2.272561172483949510e-01
7.629938547191649434e+00,-8.637150492558198778e-02,-2.268518487452058641e-01
7.612313334522276875e+00,-8.676918711552339403e-02,-2.264397124289064256e-01
7.594590847072630879e+00,-8.716853823551851121e-02,-2.260196039913682786e-01
7.576768462238341328e+00,-8.757170405277925340e-02,-2.255913297174959031e-01
7.558844868717223164e+00,-8.797630038151460496e-02,-2.251549194096116868e-01
7.540817682323485371e+00,-8.838280405888276903e-02,-2.247102538584260789e-01
7.522684280452757832e+00,-8.879169192204194871e-02,-2.242571691511659471e-01
7.504442398128539082e+00,-8.920344080815034715e-02,-2.237955758808641282e-01
7.486089651165038106e+00,-8.961805071720796434e-02,-2.233253399370698777e-01
7.467623774585753438e+00,-9.003480639347749559e-02,-2.228464017151384202e-01
7.449042622623473164e+00,-9.045370783695894090e-02,-2.223586420057802049e-01
7.430343453464537617e+00,-9.087523188481050340e-02,-2.218619266985444871e-01
7.411523286876708028e+00,-9.130009379276948778e-02,-2.213560620783357469e-01
7.392580096302062032e+00,-9.172710146794038621e-02,-2.208410183428315965e-01
7.373510663089781758e+00,-9.215768542179780809e-02,-2.203165868757753221e-01
7.354312364635497090e+00,-9.259136881718355028e-02,-2.197826484678773729e-01
7.334983412799864766e+00,-9.302695956120210496e-02,-2.192391733168153611e-01
7.315519635257750508e+00,-9.346660342106538621e-02,-2.186858633993654100e-01
7.295919601497679707e+00,-9.390791621098237840e-02,-2.181227336166887132e-01
7.276178304729491231e+00,-9.435423579106050340e-02,-2.175494114397554246e-01
7.256295148906737325e+00,-9.480198588261323778e-02,-2.169660309790162889e-01
7.236265127239256856e+00,-9.525402750858980028e-02,-2.163722048042802659e-01
7.216085736331969258e+00,-9.570988383183198778e-02,-2.157678435085801927e-01
7.195754115161925313e+00,-9.616860117802339403e-02,-2.151528129814653245e-01
7.175267164287596700e+00,-9.662994112858491746e-02,-2.145269940136461106e-01
7.154620234546690938e+00,-9.709652628788667528e-02,-2.138900289772538987e-01
7.133811299381285664e+00,-9.756573405155855028e-02,-2.132419327734498826e-01
7.112836663303404805e+00,-9.803804125675874559e-02,-2.125824818848161546e-01
7.091691557941466328e+00,-9.851559367069917528e-02,-2.119113633869676439e-01
7.070373837528258321e+00,-9.899600710758882371e-02,-2.112285474775819627e-01
7.048878018436461446e+00,-9.948166575321870653e-02,-2.105336616276292649e-01
7.027202074108153340e+00,-9.997042384037690965e-02,-2.098267058371095506e-01
7.005341355381041524e+00,-1.004629966248007378e-01,-2.091073671816377488e-01
6.983291213092833516e+00,-1.009603377808065972e-01,-2.083754072426347581e-01
6.961048190174132344e+00,-1.014619704712362847e-01,-2.076306323050050584e-01
6.938607637462645528e+00,-1.019683715332480034e-01,-2.068728039501695481e-01
6.915965740261107442e+00,-1.024785872925253472e-01,-2.061017433641939012e-01
9.774058286724120137e+00,-3.821119036564546434e-02,-2.495152483223466722e-01
9.756369058666258809e+00,-3.861125674137788621e-02,-2.498682121275453416e-01
9.738776866970091817e+00,-3.901013102421480028e-02,-2.502143959044008104e-01
9.721278731403380391e+00,-3.940638270268159715e-02,-2.505539784668474046e-01
9.703872863826781270e+00,-3.980048861393647996e-02,-2.508869747160463182e-01
9.686557476100951192e+00,-4.019316401371675340e-02,-2.512134591578035203e-01
9.669330303249388692e+00,-4.058345522770601121e-02,-2.515335510014085618e-01
9.652189080295592305e+00,-4.097136225590425340e-02,-2.518473396538286058e-01
9.635132376728087422e+00,-4.135736193546968309e-02,-2.521548251150636522e-01
9.618158464012175557e+00,-4.174240794071870653e-02,-2.524560818909196702e-01
9.601264957962065694e+00,-4.212506976017671434e-02,-2.527512142895250169e-01
9.584450010833769795e+00,-4.250534739384370653e-02,-2.530403117178468553e-01
9.567712251720458028e+00,-4.288443293461519090e-02,-2.533233816264657823e-01
9.551049773273497578e+00,-4.326208796391206590e-02,-2.536004761694459764e-01
9.534460548934966084e+00,-4.363759722599702684e-02,-2.538717220066575853e-01
9.517943446216612813e+00,-4.401239123234468309e-02,-2.541370893357782212e-01
9.501495604095488545e+00,-4.438384737858491746e-02,-2.543967942236451951e-01
9.485116605339079854e+00,-4.475482668766694871e-02,-2.546507100103883592e-01
9.468804184970885274e+00,-4.512413706669526903e-02,-2.548989857076196519e-01
9.452556793270140645e+00,-4.549177851566987840e-02,-2.551416585682420579e-01
9.436372940120726582e+00,-4.585846629032808153e-02,-2.553787658451585618e-01
9.420251075801878926e+00,-4.622372355351167528e-02,-2.556103522418527452e-01
9.404189531383543965e+00,-4.658802714237886278e-02,-2.558364848135499803e-01
9.388186518726378438e+00,-4.694994654545503465e-02,-2.560572455166368333e-01
9.372240845737486836e+00,-4.731091227421480028e-02,-2.562726269005327073e-01
9.356351022300749776e+00,-4.767092432865815965e-02,-2.564826811193017808e-01
9.340515319881468770e+00,-4.802926745304780809e-02,-2.566874752281694261e-01
9.324732546386748311e+00,-4.838665690312105028e-02,-2.568870241282968370e-01
9.309000913677245137e+00,-4.874237742314058153e-02,-2.570814172266511766e-01
9.293319468078642842e+00,-4.909762110600190965e-02,-2.572706098197488633e-01
9.277686540660887715e+00,-4.945191111454683153e-02,-2.574546913145570604e-01
9.262100641307860371e+00,-4.980477061161714403e-02,-2.576337138651399461e-01
9.246560399112730977e+00,-5.015643801579194871e-02,-2.578077147244005052e-01
9.231064681587248799e+00,-5.050739016422944871e-02,-2.579766789911775438e-01
9.215611939010649678e+00,-5.085738863835054246e-02,-2.581406737206964341e-01
9.200200681266814229e+00,-5.120547976383882371e-02,-2.582997734187631456e-01
9.184830014286070821e+00,-5.155357088932710496e-02,-2.584539259313134996e-01
9.169498447952300069e+00,-5.190094675907808153e-02,-2.586031908629922715e-01
9.154204492149382588e+00,-5.224713053593355028e-02,-2.587476278184442369e-01
9.138947014389067647e+00,-5.259236063847261278e-02,-2.588872591494111863e-01
9.123724703369170186e+00,-5.293663706669526903e-02,-2.590220997570543138e-01
9.108536456403761861e+00,-5.328067507633882371e-02,-2.591521347402124253e-01
9.093380664167433736e+00,-5.362304415592866746e-02,-2.592774982093362657e-01
9.078256521997481343e+00,-5.396589007267671434e-02,-2.593980784057168809e-01
9.063162509975462910e+00,-5.430754389652925340e-02,-2.595139870880632249e-01
9.048097406206160542e+00,-5.464824404606538621e-02,-2.596252466081170884e-01
9.033060048399001118e+00,-5.498822893986421434e-02,-2.597318644164590684e-01
9.018049214658766743e+00,-5.532749857792573778e-02,-2.598338628648309556e-01
9.003063891706496236e+00,-5.566700663456636278e-02,-2.599312121509103624e-01
8.988102649030714986e+00,-5.600532259831147996e-02,-2.600240016816644517e-01
8.973164443550139424e+00,-5.634363856205659715e-02,-2.601121942041902391e-01
8.958247934160262105e+00,-5.668052401432710496e-02,-2.601958791254548875e-01
8.943352137384444234e+00,-5.701764788517671434e-02,-2.602749893902330247e-01
8.928475861129790303e+00,-5.735453333744722215e-02,-2.603495771525888292e-01
8.913617853698760030e+00,-5.769046511540132371e-02,-2.604196722148446885e-01
8.898777072010069844e+00,-5.802639689335542528e-02,-2.604852522252588121e-01
8.883952204761534688e+00,-5.836137499699312059e-02,-2.605463916896371690e-01
8.869142402586966512e+00,-5.869730677494722215e-02,-2.606029788492708055e-01
8.854346234974890706e+00,-5.903180804142671434e-02,-2.606551701663522569e-01
8.839562658844023701e+00,-5.936583247074800340e-02,-2.607029209373979417e-01
8.824790646014243123e+00,-5.970009531864839403e-02,-2.607461939095048753e-01
8.810028944788008687e+00,-6.003388132939058153e-02,-2.607850561378984300e-01
8.795276541886359212e+00,-6.036766734013276903e-02,-2.608194778202562181e-01
8.780532245216399190e+00,-6.070145335087495653e-02,-2.608494738577394334e-01
8.765794907388716695e+00,-6.103380885014253465e-02,-2.608751187561540452e-01
8.751063552377253529e+00,-6.136759486088472215e-02,-2.608962784050493089e-01
8.736336943385630605e+00,-6.170042719731050340e-02,-2.609130720137147752e-01
8.721614000079661366e+00,-6.203278269657808153e-02,-2.609254772304086534e-01
8.706893671927481648e+00,-6.236680712589937059e-02,-2.609334046481637803e-01
8.692174763110905644e+00,-6.269963946232515184e-02,-2.609369958280114976e-01
8.677456200746327397e+00,-6.303223338017183153e-02,-2.609361986158876268e-01
8.662736891461044308e+00,-6.336530413517671434e-02,-2.609309683083085862e-01
8.648015704629450795e+00,-6.369789805302339403e-02,-2.609213868616609422e-01
8.633291546878844258e+00,-6.403073038944917528e-02,-2.609073797701387254e-01
8.618563300622135159e+00,-6.436403956303315965e-02,-2.608889470337419358e-01
8.603829861310750005e+00,-6.469687189945894090e-02,-2.608661482571153489e-01
8.589090113220244405e+00,-6.502994265446382371e-02,-2.608389312861947862e-01
8.574342925725012776e+00,-6.536396708378511278e-02,-2.608072588680772630e-01
8.559587222216158864e+00,-6.569703783878999559e-02,-2.607712204097299424e-01
8.544821847853690144e+00,-6.603058543095308153e-02,-2.607307414053468553e-01
8.530045692501097676e+00,-6.636484827885347215e-02,-2.606858069537668077e-01
8.515257608768969533e+00,-6.669934954533296434e-02,-2.606364245055703965e-01
8.500456501421957967e+00,-6.703385081181245653e-02,-2.605826015113382188e-01
8.485641200718909261e+00,-6.736906733402925340e-02,-2.605242932675866929e-01
8.470810596523314473e+00,-6.770476069340425340e-02,-2.604615072248964158e-01
8.455963586149245259e+00,-6.803997721562105028e-02,-2.603942731855897752e-01
8.441098962602644917e+00,-6.837567057499605028e-02,-2.603225315450219957e-01
8.426215578494101521e+00,-6.871207919010835496e-02,-2.602462674020318834e-01
8.411312256631880757e+00,-6.904920306095796434e-02,-2.601654584048776475e-01
8.396387939033537862e+00,-6.938585009464937059e-02,-2.600801492570428697e-01
8.381441299495726582e+00,-6.972392763981538621e-02,-2.599902431009797898e-01
8.366471205530196187e+00,-7.006295885929780809e-02,-2.598957399366884080e-01
8.351476673660307881e+00,-7.040103640446382371e-02,-2.597967068193940965e-01
8.336456213769942281e+00,-7.074054446110444871e-02,-2.596930170892267076e-01
8.321408752975493428e+00,-7.108100619206147996e-02,-2.595846856473474351e-01
8.306333128986388203e+00,-7.142146792301851121e-02,-2.594717199443368760e-01
8.291228119907408711e+00,-7.176240649113374559e-02,-2.593540976284532396e-01
8.276092295227080342e+00,-7.210525240788179246e-02,-2.592317069409875718e-01
8.260924820480376241e+00,-7.244690623173433153e-02,-2.591046819923906175e-01
8.245724056539565083e+00,-7.279046740421968309e-02,-2.589728514193086473e-01
8.230488930521040913e+00,-7.313474383244233934e-02,-2.588362599252252427e-01
8.215218160924941060e+00,-7.347949709782319871e-02,-2.586948702572374192e-01
8.199910376844435689e+00,-7.382591929325776903e-02,-2.585486228107004014e-01
8.184564326581984517e+00,-7.417281832585054246e-02,-2.583975250361947862e-01
8.169178847847014424e+00,-7.452043261418062059e-02,-2.582415620325593797e-01
8.153752510128050801e+00,-7.486876215824800340e-02,-2.580806741951494065e-01
8.138284091529875752e+00,-7.521780695805269090e-02,-2.579148615239648668e-01
8.122771923122435567e+00,-7.556875910649019090e-02,-2.577439973591356126e-01
8.107214932022124287e+00,-7.592042651066499559e-02,-2.575681487558870164e-01
8.091611866531401631e+00,-7.627257075199800340e-02,-2.573872710107354966e-01
8.075961057720213887e+00,-7.662614550480562059e-02,-2.572012896178750840e-01
8.060261194286375996e+00,-7.698067393192964403e-02,-2.570101822255639878e-01
8.044510845718413350e+00,-7.733663287052827684e-02,-2.568138892291574327e-01
8.028708700714140889e+00,-7.769330706486421434e-02,-2.566124180792360154e-01
8.012853149948149678e+00,-7.805141177067476121e-02,-2.564056793688325731e-01
7.996942762908965108e+00,-7.841094698795991746e-02,-2.561936507462053147e-01
7.980976109085112569e+00,-7.877143587956147996e-02,-2.559762949584512559e-01
7.964951579151183125e+00,-7.913359370121675340e-02,-2.557535524009256211e-01
7.948867861804991719e+00,-7.949646677860933153e-02,-2.555254081724672166e-01
7.932723228511839864e+00,-7.986100878605562059e-02,-2.552917803166894761e-01
7.916516010341673848e+00,-8.022721972355562059e-02,-2.550526092289476243e-01
7.900244895992308614e+00,-8.059414591679292528e-02,-2.548078949092416612e-01
7.883907978115111348e+00,-8.096345629582124559e-02,-2.545575330494432298e-01
7.867503706989317891e+00,-8.133419718632417528e-02,-2.543014789460687486e-01
7.851030771312743184e+00,-8.170565333256440965e-02,-2.540397400496988145e-01
7.834486965713530537e+00,-8.207925524601655809e-02,-2.537721822498826829e-01
7.817870978889494893e+00,-8.245428767094331590e-02,-2.534987906454591600e-01
7.801180724678069112e+00,-8.283122744450288621e-02,-2.532194758294610826e-01
7.784414474544554707e+00,-8.321031298527437059e-02,-2.529341707466630784e-01
7.767570857582121846e+00,-8.359035220036226121e-02,-2.526428679464845506e-01
7.750647966442137715e+00,-8.397206034550386278e-02,-2.523455003737001268e-01
7.733643595752745625e+00,-8.435567583927827684e-02,-2.520419488190202562e-01
7.716555957374602315e+00,-8.474167551884370653e-02,-2.517321387766389695e-01
7.699382965145140645e+00,-8.513029780277925340e-02,-2.514160106419114915e-01
7.682123426971465108e+00,-8.551963534245210496e-02,-2.510935793159990159e-01
7.664774779853850362e+00,-8.591111864933687059e-02,-2.507646808861284105e-01
7.647335056839018819e+00,-8.630474772343355028e-02,-2.504292557476548997e-01
7.629802052555113789e+00,-8.670099940190034715e-02,-2.500872293947725145e-01
7.612174336490660664e+00,-8.709868159184175340e-02,-2.497385571239976731e-01
7.594449584064513203e+00,-8.749803271183687059e-02,-2.493831495283632127e-01
7.576624815044432637e+00,-8.790119852909761278e-02,-2.490208426950960008e-01
7.558698718128233907e+00,-8.830579485783296434e-02,-2.486516217230348436e-01
7.540668789920836446e+00,-8.871301379093843309e-02,-2.482753972052125779e-01
7.522533123073607442e+00,-8.912166323551851121e-02,-2.478921095369844285e-01
7.504288856563597676e+00,-8.953341212162690965e-02,-2.475016097067384568e-01
7.485933606205016133e+00,-8.994778361210542528e-02,-2.471037934063463060e-01
7.467465345439940450e+00,-9.036477770695405809e-02,-2.466986010311632005e-01
7.448881451664000508e+00,-9.078415598759370653e-02,-2.462859431742219773e-01
7.430179540691405293e+00,-9.120591845402437059e-02,-2.458657006262330857e-01
7.411356870708495137e+00,-9.163054194340425340e-02,-2.454377541779069749e-01
7.392411176738768575e+00,-9.205754961857515184e-02,-2.450020293234376756e-01
7.373339120922118184e+00,-9.248813357243257371e-02,-2.445583472488908616e-01
7.354138319072752950e+00,-9.292205538639741746e-02,-2.441066483496217576e-01
7.334806625423460957e+00,-9.335764613041597215e-02,-2.436468432186632005e-01
7.315340225276976582e+00,-9.379728999027925340e-02,-2.431787381409196702e-01
7.295737211284667012e+00,-9.423907961735444871e-02,-2.427023182152299730e-01
7.275993530330687520e+00,-9.468516077885347215e-02,-2.422173152206926194e-01
7.256107394275694844e+00,-9.513314928898530809e-02,-2.417237589596299974e-01
7.236074869213133809e+00,-9.558519091496187059e-02,-2.412213812111406175e-01
7.215892498073607442e+00,-9.604152407536226121e-02,-2.407100627659349290e-01
7.195558135089903828e+00,-9.650000300297456590e-02,-2.401897589205293504e-01
7.175068323192625996e+00,-9.696181979069429246e-02,-2.396602908609895555e-01
7.154418532428771016e+00,-9.742840494999605028e-02,-2.391214201687364427e-01
7.133606736240416524e+00,-9.789785113224702684e-02,-2.385731170414476243e-01
7.112629000721007344e+00,-9.837063517460542528e-02,-2.380152026651887742e-01
7.091481272754698750e+00,-9.884794916996675340e-02,-2.374474535225419847e-01
7.070160452899962422e+00,-9.932836260685640184e-02,-2.368697802065400926e-01
7.048661891994505879e+00,-9.981402125248628465e-02,-2.362819293974428025e-01
7.026982848224669453e+00,-1.003027793396444878e-01,-2.356838116882829515e-01
7.005119030056029317e+00,-1.007955905426474175e-01,-2.350752482651262132e-01
6.983065907535582539e+00,-1.012931701172323784e-01,-2.344560007093934861e-01
6.960819546756773946e+00,-1.017952796448202690e-01,-2.338259051083116380e-01
6.938376013813048360e+00,-1.023014422882528862e-01,-2.331847826479463426e-01
6.915731136379271504e+00,-1.028116580475302300e-01,-2.325324694155244676e-01
9.773872201023131367e+00,-3.782399859318452684e-02,-2.728723416565446702e-01
9.756185953197508809e+00,-3.822406496891694871e-02,-2.731610144017724839e-01
9.738596503315001485e+00,-3.862270083317476121e-02,-2.734441513656167833e-01
9.721101228771239278e+00,-3.901895251164155809e-02,-2.737218568562059251e-01
9.703698222217589375e+00,-3.941305842289644090e-02,-2.739942053793458787e-01
9.686385457096129414e+00,-3.980525698551851121e-02,-2.742612416385202256e-01
9.669161145267516133e+00,-4.019554819950776903e-02,-2.745230177877931443e-01
9.652022783336668965e+00,-4.058345522770601121e-02,-2.747796232341317979e-01
9.634968821582823750e+00,-4.096921648869233934e-02,-2.750311101316003648e-01
9.617997769889861104e+00,-4.135426249394136278e-02,-2.752774784801988450e-01
9.601107005653410909e+00,-4.173692431339937059e-02,-2.755188474892167894e-01
9.584294740734129903e+00,-4.211696352848726121e-02,-2.757552916644601670e-01
