1.3666725158691406,0.016276972368359566,-2.0318477153778076
1.3755871057510376,0.01630883477628231,-2.031614303588867
1.3845365047454834,0.01634097285568714,-2.0313796997070312
1.3935216665267944,0.016373394057154655,-2.031144618988037
1.4024903774261475,0.016405489295721054,-2.0308327674865723
1.4114083051681519,0.0164368636906147,-2.030395746231079
1.4203565120697021,0.016468467190861702,-2.029951810836792
1.4293086528778076,0.016499994322657585,-2.0294623374938965
1.4381933212280273,0.016530625522136688,-2.02882719039917
1.4470994472503662,0.016561396420001984,-2.0281736850738525
1.1917184591293335,0.01358034648001194,-1.6594542264938354
0.7650139331817627,0.008680748753249645,-1.0584044456481934
0.7888391017913818,0.008913305588066578,-1.0843440294265747
0.8063924312591553,0.009073423221707344,-1.1013543605804443
0.8200709223747253,0.009188872762024403,-1.1128571033477783
0.8339811563491821,0.009306036867201328,-1.1244934797286987
0.8482908010482788,0.009426760487258434,-1.136483907699585
0.8625776767730713,0.009546332992613316,-1.1482585668563843
0.8738539814949036,0.009631838649511337,-1.1558678150177002
0.8851197957992554,0.00971662811934948,-1.1633330583572388
0.8965836763381958,0.009802993386983871,-1.1709280014038086
0.9065594673156738,0.009872556664049625,-1.1764612197875977
0.9160205125808716,0.0099360765889287,-1.1812258958816528
0.9256054759025574,0.010000526905059814,-1.18605375289917
0.9353154301643372,0.010065912269055843,-1.1909445524215698
0.9451513290405273,0.01013223361223936,-1.1958972215652466
0.9551199078559875,0.010199553333222866,-1.2009183168411255
0.9652189612388611,0.010267839767038822,-1.206002950668335
0.9747722148895264,0.010329917073249817,-1.2103092670440674
0.9832555055618286,0.01038032304495573,-1.2132043838500977
0.9917771816253662,0.010430851019918919,-1.2160727977752686
1.0003767013549805,0.010481913574039936,-1.2189624309539795
1.0090655088424683,0.01053362712264061,-1.2218862771987915
1.0178852081298828,0.010586416348814964,-1.2248927354812622
1.0271345376968384,0.010643369518220425,-1.2283369302749634
1.0365453958511353,0.010701673105359077,-1.2318915128707886
1.0448302030563354,0.010748069733381271,-1.2340326309204102
1.0527397394180298,0.010790386237204075,-1.2356672286987305
1.0607177019119263,0.010833199135959148,-1.2373214960098267
1.0687543153762817,0.01087640505284071,-1.2389832735061646
1.076857566833496,0.010920081287622452,-1.2406607866287231
1.0850247144699097,0.010964199900627136,-1.2423502206802368
1.0932602882385254,0.011008800007402897,-1.2440556287765503
1.1015615463256836,0.011053853668272495,-1.245773196220398
1.109932780265808,0.011099398136138916,-1.247506856918335
1.1183714866638184,0.011145406402647495,-1.2492526769638062
1.1268746852874756,0.011191845871508121,-1.2510064840316772
1.1347285509109497,0.011231647804379463,-1.2519800662994385
1.1421921253204346,0.011267435736954212,-1.2524710893630981
1.1497035026550293,0.011303559876978397,-1.2529652118682861
1.1572626829147339,0.011340017430484295,-1.2534618377685547
1.1648709774017334,0.0113768195733428,-1.2539619207382202
1.1725293397903442,0.01141397375613451,-1.2544656991958618
1.180237054824829,0.011451469734311104,-1.2549717426300049
1.1879961490631104,0.011489327065646648,-1.2554817199707031
1.1958078145980835,0.011527554132044315,-1.2559961080551147
1.2036707401275635,0.011566136963665485,-1.2565131187438965
1.2115856409072876,0.011605079285800457,-1.2570325136184692
1.2195552587509155,0.011644406244158745,-1.257556676864624
1.2275787591934204,0.011684106662869453,-1.2580840587615967
1.235657811164856,0.011724194511771202,-1.2586153745651245
1.2437920570373535,0.011764666065573692,-1.2591501474380493
1.251936435699463,0.011805091984570026,-1.2596418857574463
1.259124517440796,0.011836390942335129,-1.259124517440796
1.266431450843811,0.01186872273683548,-1.258684515953064
1.273779273033142,0.011901351623237133,-1.2582428455352783
1.2811528444290161,0.011934134177863598,-1.2577840089797974
1.288581371307373,0.011967343278229237,-1.2573367357254028
1.2960504293441772,0.012000841088593006,-1.2568857669830322
1.3035598993301392,0.012034625746309757,-1.2564308643341064
1.311108946800232,0.012068688869476318,-1.2559705972671509
1.3186980485916138,0.012103033252060413,-1.2555049657821655
1.326328158378601,0.012137665413320065,-1.255034327507019
1.3340152502059937,0.012172731570899487,-1.2545733451843262
1.3417423963546753,0.012208076193928719,-1.254105567932129
1.349509358406067,0.012243692763149738,-1.2536300420761108
1.3573157787322998,0.012279579415917397,-1.2531461715698242
1.3651779890060425,0.012315881438553333,-1.2526684999465942
1.3730794191360474,0.01235244795680046,-1.252181053161621
1.381021499633789,0.01238929107785225,-1.2516849040985107
1.3890225887298584,0.012426575645804405,-1.2511961460113525
1.3966714143753052,0.012460627593100071,-1.2503457069396973
1.404036521911621,0.012492083944380283,-1.249200463294983
1.411428451538086,0.012523726560175419,-1.2480404376983643
1.4188666343688965,0.012555724009871483,-1.2468818426132202
1.4263346195220947,0.01258793007582426,-1.2457101345062256
1.4338456392288208,0.012620462104678154,-1.2445363998413086
1.4413998126983643,0.012653317302465439,-1.2433600425720215
1.4489833116531372,0.012686374597251415,-1.2421687841415405
1.4566138982772827,0.012719789519906044,-1.2409776449203491
1.4642703533172607,0.012753373943269253,-1.2397676706314087
1.4719866514205933,0.012787424959242344,-1.2385677099227905
1.4797356128692627,0.012821704149246216,-1.2373539209365845
1.4875274896621704,0.012856297194957733,-1.2361345291137695
1.4953440427780151,0.01289104949682951,-1.234894037246704
1.5032273530960083,0.012926320545375347,-1.2336668968200684
1.5111373662948608,0.012961764819920063,-1.2324192523956299
1.5190891027450562,0.012997510842978954,-1.2311633825302124
1.5270901918411255,0.013033621944487095,-1.2299046516418457
1.5351555347442627,0.013070225715637207,-1.2286547422409058
1.543232798576355,0.0131068741902709,-1.2273709774017334
1.5507742166519165,0.013138926587998867,-1.2256206274032593
1.558183193206787,0.013169828802347183,-1.2237284183502197
1.565625548362732,0.013200987130403519,-1.221826195716858
1.573104977607727,0.013232432305812836,-1.2199161052703857
1.5806342363357544,0.01326427049934864,-1.2180078029632568
1.5881834030151367,0.013296249322593212,-1.2160775661468506
1.5957646369934082,0.013328472152352333,-1.2141345739364624
1.603379487991333,0.013360949233174324,-1.2121796607971191
1.6110492944717407,0.013393858447670937,-1.210228443145752
1.6187498569488525,0.01342699769884348,-1.2082622051239014
1.6264703273773193,0.013460276648402214,-1.2062726020812988
1.634238362312317,0.013493922539055347,-1.2042797803878784
1.6420668363571167,0.01352804247289896,-1.2022926807403564
1.6499037742614746,0.013562205247581005,-1.2002726793289185
1.657800316810608,0.013596832752227783,-1.1982568502426147
1.6657270193099976,0.01363168004900217,-1.1962231397628784
1.6737117767333984,0.013666978105902672,-1.194191336631775
1.6817067861557007,0.01370233204215765,-1.192126750946045
1.6897600889205933,0.013738136738538742,-1.1900633573532104
1.6978652477264404,0.013774336315691471,-1.1879956722259521
1.7060093879699707,0.013810825534164906,-1.185914397239685
1.714001178741455,0.013846058398485184,-1.1836868524551392
1.7217113971710205,0.013879002071917057,-1.1812267303466797
1.7294763326644897,0.013912379741668701,-1.1787669658660889
1.7372987270355225,0.01394620817154646,-1.1763087511062622
1.7451417446136475,0.013980193063616753,-1.173826813697815
1.7530194520950317,0.014014446176588535,-1.1713300943374634
1.7609413862228394,0.0140490448102355,-1.1688249111175537
1.7688939571380615,0.014083878137171268,-1.1663014888763428
1.77689528465271,0.014119090512394905,-1.1637715101242065
1.7849228382110596,0.01415450219064951,-1.1612197160720825
1.7930048704147339,0.01419033668935299,-1.1586641073226929
1.8011308908462524,0.014226511120796204,-1.156097412109375
1.8092914819717407,0.01426294818520546,-1.1535130739212036
1.8174989223480225,0.014299745671451092,-1.1509184837341309
1.8257341384887695,0.014336753636598587,-1.1483012437820435
1.8340239524841309,0.01437418069690466,-1.1456776857376099
1.8423595428466797,0.014411958865821362,-1.143041729927063
1.850728988647461,0.014449993148446083,-1.1403857469558716
1.859039545059204,0.014487559907138348,-1.1376523971557617
1.8672324419021606,0.014524208381772041,-1.1348069906234741
1.8754962682724,0.014561405405402184,-1.1319646835327148
1.883779764175415,0.014598756097257137,-1.129094123840332
1.8921124935150146,0.01463648583739996,-1.1262125968933105
1.9004735946655273,0.014674436300992966,-1.123307466506958
1.908879041671753,0.014712727628648281,-1.1203875541687012
1.9173362255096436,0.014751418493688107,-1.1174567937850952
1.9258455038070679,0.014790509827435017,-1.114514946937561
1.934400200843811,0.014829949475824833,-1.1115574836730957
1.9429820775985718,0.014869597740471363,-1.1085734367370605
1.9516170024871826,0.014909652993083,-1.1055773496627808
1.9602981805801392,0.014950061216950417,-1.102564811706543
1.969030737876892,0.01499086245894432,-1.0995382070541382
1.977819561958313,0.015032092109322548,-1.0964995622634888
1.9866559505462646,0.0150736840441823,-1.0934436321258545
1.3878374099731445,0.010512467473745346,-0.7583191394805908
1.3562133312225342,0.010255780071020126,-0.735645592212677
1.3438268899917603,0.010145277716219425,-0.7235998511314392
1.3317254781723022,0.010037383064627647,-0.7118220925331116
1.3199462890625,0.009932360611855984,-0.70032799243927
1.3108783960342407,0.00984814204275608,-0.6903712749481201
1.3058274984359741,0.009794417768716812,-0.6826021075248718
1.3008288145065308,0.009741348214447498,-0.6749158501625061
1.2960484027862549,0.009690170176327229,-0.6673969626426697
1.2923288345336914,0.009647165425121784,-0.6604733467102051
1.28915536403656,0.009608455002307892,-0.6538711190223694
1.2860068082809448,0.009570141322910786,-0.6473214030265808
1.282885193824768,0.009532234631478786,-0.6408246159553528
1.2797874212265015,0.009494712576270103,-0.6343787312507629
1.2767136096954346,0.009457569569349289,-0.6279831528663635
1.2736637592315674,0.009420804679393768,-0.6216373443603516
1.2709540128707886,0.009386749938130379,-0.615493893623352
1.2692322731018066,0.009360171854496002,-0.6098600625991821
1.2678444385528564,0.009336218237876892,-0.6044124960899353
1.2664639949798584,0.00931247603148222,-0.5989928245544434
1.2650866508483887,0.009288913570344448,-0.5935988426208496
1.2637213468551636,0.009265594184398651,-0.5882343649864197
1.262358546257019,0.009242447093129158,-0.5828947424888611
1.2610033750534058,0.009219507686793804,-0.5775820016860962
1.2597228288650513,0.009197263978421688,-0.5723264217376709
1.258971929550171,0.009179030545055866,-0.5673320293426514
1.2582751512527466,0.009161327965557575,-0.5623801946640015
1.2575815916061401,0.009143783710896969,-0.5574475526809692
1.2568877935409546,0.009126370772719383,-0.5525325536727905
1.2561999559402466,0.0091091338545084,-0.5476375818252563
1.255513072013855,0.00909203477203846,-0.5427603125572205
1.254828691482544,0.009075085632503033,-0.5379012823104858
1.2543896436691284,0.009060037322342396,-0.5331634283065796
1.2545013427734375,0.009049086831510067,-0.5286727547645569
1.2547791004180908,0.009039445780217648,-0.5242623686790466
1.2550551891326904,0.009029903449118137,-0.5198609232902527
1.2553304433822632,0.00902046263217926,-0.5154685378074646
1.2556068897247314,0.00901114009320736,-0.5110860466957092
1.25588059425354,0.009001904167234898,-0.5067116022109985
1.2561545372009277,0.008992779068648815,-0.5023465156555176
1.2564291954040527,0.008983764797449112,-0.4979906380176544
1.2567015886306763,0.008974841795861721,-0.4936428368091583
1.2569739818572998,0.008966024033725262,-0.4893037974834442
1.2572461366653442,0.00895731057971716,-0.48497337102890015
1.2575169801712036,0.008948692120611668,-0.48065096139907837
1.2577884197235107,0.008940181694924831,-0.4763372838497162
1.2580585479736328,0.008931766264140606,-0.47203147411346436
1.2583286762237549,0.008923454210162163,-0.46773388981819153
1.2591204643249512,0.008918940089643002,-0.46363651752471924
1.2602287530899048,0.008916759863495827,-0.45965901017189026
1.2613308429718018,0.008914624340832233,-0.45568135380744934
1.2624354362487793,0.008912594057619572,-0.4517066180706024
1.2635372877120972,0.008910633623600006,-0.4477328956127167
1.2646422386169434,0.00890878215432167,-0.4437620937824249
1.265744924545288,0.008907003328204155,-0.43979230523109436
1.2668447494506836,0.008905292488634586,-0.4358232319355011
1.2679688930511475,0.008903838694095612,-0.43186405301094055
1.2695468664169312,0.008905655704438686,-0.42805927991867065
1.271228313446045,0.008908277377486229,-0.42428722977638245
1.2729142904281616,0.008911008946597576,-0.4205140769481659
1.274604320526123,0.008913848549127579,-0.4167395830154419
1.2762930393218994,0.008916755206882954,-0.41296181082725525
1.2779797315597534,0.008919727057218552,-0.40918058156967163
1.2796711921691895,0.008922809734940529,-0.4053979516029358
1.2813609838485718,0.008925959467887878,-0.4016117453575134
1.2830493450164795,0.0089291762560606,-0.3978220224380493
1.2852375507354736,0.00893594603985548,-0.3941824734210968
1.2877488136291504,0.008945032022893429,-0.39063432812690735
1.2903966903686523,0.008955133147537708,-0.387118399143219
1.2930556535720825,0.00896537583321333,-0.38359594345092773
1.295715570449829,0.00897569116204977,-0.38006389141082764
1.2983769178390503,0.008986083790659904,-0.37652233242988586
1.3010590076446533,0.008996684104204178,-0.372976690530777
1.3037320375442505,0.009007289074361324,-0.36941826343536377
1.3064161539077759,0.009018034674227238,-0.3658526837825775
1.3091108798980713,0.009028921835124493,-0.3622797429561615
1.3118069171905518,0.009039884433150291,-0.35869675874710083
1.3145571947097778,0.009051285684108734,-0.3551178276538849
1.3178232908248901,0.009066303260624409,-0.3516656458377838
1.3212109804153442,0.009082216769456863,-0.34823110699653625
1.3246041536331177,0.009098228067159653,-0.34478282928466797
1.3280136585235596,0.009114410728216171,-0.3413234055042267
1.3314729928970337,0.009130995720624924,-0.33786118030548096
1.3353055715560913,0.009150199592113495,-0.33447664976119995
1.3397548198699951,0.009173681028187275,-0.3312262296676636
1.344261646270752,0.009197607636451721,-0.3279675543308258
1.348799228668213,0.00922179501503706,-0.324693500995636
1.3533496856689453,0.009246121160686016,-0.3213995099067688
1.3579312562942505,0.009270711801946163,-0.31808972358703613
1.3625435829162598,0.009295564144849777,-0.3147636651992798
1.3671691417694092,0.009320558980107307,-0.3114170730113983
1.371826410293579,0.009345822036266327,-0.3080539405345917
1.37651526927948,0.00937135424464941,-0.30467382073402405
1.3812175989151,0.009397029876708984,-0.30127251148223877
1.3859525918960571,0.009422983042895794,-0.29785391688346863
1.3907021284103394,0.00944908894598484,-0.29441389441490173
1.3955256938934326,0.009475752711296082,-0.29096463322639465
1.4009785652160645,0.009506742469966412,-0.287619411945343
1.407112717628479,0.009542401880025864,-0.2843826413154602
1.41327702999115,0.009578311815857887,-0.2811183035373688
1.4195046424865723,0.009614696726202965,-0.2778324782848358
1.4259909391403198,0.00965287908911705,-0.2745622396469116
1.4332560300827026,0.009696375578641891,-0.27140355110168457
1.4406579732894897,0.009740838780999184,-0.26822948455810547
1.4481080770492554,0.009785668924450874,-0.2650224566459656
1.4556350708007812,0.009831058792769909,-0.26178714632987976
1.4632397890090942,0.009877016767859459,-0.25852298736572266
1.470923662185669,0.009923551231622696,-0.25522947311401367
1.4787153005599976,0.00997085589915514,-0.2519106864929199
1.487697958946228,0.010026233270764351,-0.24874673783779144
1.4991260766983032,0.010098119266331196,-0.24593210220336914
1.5118364095687866,0.010178660973906517,-0.24325653910636902
1.5247141122817993,0.010260345414280891,-0.2405320703983307
1.537811040878296,0.0103435218334198,-0.2377651482820511
1.551133155822754,0.01042823027819395,-0.2349546253681183
1.564634084701538,0.010514160618185997,-0.23209154605865479
1.5782253742218018,0.01060071773827076,-0.22916138172149658
1.5919280052185059,0.01068804506212473,-0.2261662781238556
1.623919129371643,0.010898131877183914,-0.22563080489635468
2.420337200164795,0.01623605377972126,-0.32872119545936584
2.7250263690948486,0.018272437155246735,-0.36159199476242065
2.721888780593872,0.018244056031107903,-0.35268139839172363
2.7187576293945312,0.018215913325548172,-0.3437979221343994
2.7156331539154053,0.018188009038567543,-0.33494138717651367
2.7125155925750732,0.018160343170166016,-0.3261115849018097
2.7094180583953857,0.018133001402020454,-0.317309707403183
2.706315279006958,0.01810581609606743,-0.30853259563446045
2.7032313346862793,0.018078943714499474,-0.2997826933860779
2.7001545429229736,0.01805231161415577,-0.2910584807395935
2.697084903717041,0.01802591234445572,-0.28235962986946106
2.6940345764160156,0.01799982786178589,-0.2736871540546417
2.69097900390625,0.017973894253373146,-0.26503828167915344
2.6879425048828125,0.017948275431990623,-0.2564152181148529
2.684913396835327,0.017922887578606606,-0.24781648814678192
2.6818790435791016,0.017897648736834526,-0.23924075067043304
2.678875207901001,0.017872793599963188,-0.23069094121456146
2.67586612701416,0.01784808747470379,-0.22216364741325378
2.6728639602661133,0.017823606729507446,-0.21365968883037567
2.6698801517486572,0.01779942773282528,-0.20517973601818085
2.666890859603882,0.017775392159819603,-0.19672168791294098
2.663919687271118,0.017751654610037804,-0.18828707933425903
2.6609554290771484,0.017728140577673912,-0.17987483739852905
2.6579864025115967,0.01770477183163166,-0.17148394882678986
2.6550471782684326,0.017681777477264404,-0.16311641037464142
2.6521029472351074,0.01765892282128334,-0.15476977825164795
2.649165391921997,0.017636289820075035,-0.14644457399845123
2.6462342739105225,0.01761387102305889,-0.13814054429531097
2.6433093547821045,0.01759166829288006,-0.12985746562480927
2.64040207862854,0.017569754272699356,-0.12159562855958939
2.6374895572662354,0.017547978088259697,-0.11335375159978867
2.6345949172973633,0.01752649061381817,-0.10513261705636978
2.631706953048706,0.017505217343568802,-0.09693150967359543
2.628814697265625,0.017484085634350777,-0.08874981850385666
2.6259396076202393,0.017463237047195435,-0.08058810234069824
2.62307071685791,0.017442597076296806,-0.07244572788476944
2.620197057723999,0.01742209494113922,-0.06432222574949265
2.6173408031463623,0.01740187592804432,-0.05621795356273651
2.6144909858703613,0.017381863668560982,-0.048132382333278656
2.611647129058838,0.01736205816268921,-0.040065307170152664
1.8919250965118408,0.012576860375702381,-0.023218579590320587
1.8726739883422852,0.012448475696146488,-0.017236361280083656
1.8646348714828491,0.012394744902849197,-0.011441400274634361
1.8566542863845825,0.012341520749032497,-0.005696161650121212
1.8487412929534912,0.012288864701986313,-1.131990183182816e-16
1.8408950567245483,0.012236766517162323,0.005647812969982624
1.8328334093093872,0.012183351442217827,0.011246265843510628
1.8243098258972168,0.012126977555453777,0.01679121144115925
1.8158559799194336,0.012071180157363415,0.02228502556681633
1.807479977607727,0.01201600767672062,0.027728570625185966
1.7991806268692017,0.011961453594267368,0.03312264382839203
1.790924310684204,0.01190729159861803,0.038467321544885635
1.7827751636505127,0.011853947304189205,0.04376467317342758
1.7746996879577637,0.011801197193562984,0.049014851450920105
1.7666960954666138,0.011749026365578175,0.05421856790781021
1.7587337493896484,0.011697230860590935,0.059375543147325516
1.7501111030578613,0.011641141958534718,0.0644604042172432
1.7411794662475586,0.011583096347749233,0.06948117911815643
1.7323707342147827,0.011525961570441723,0.07445364445447922
1.7230499982833862,0.01146551314741373,0.07934978604316711
1.712999701499939,0.011400301940739155,0.08415427803993225
1.7030274868011475,0.011335696093738079,0.08890261501073837
1.6931700706481934,0.011271941475570202,0.09359761327505112
1.6834251880645752,0.011209020391106606,0.09824028611183167
1.673791527748108,0.011146924458444118,0.1028316468000412
1.6642669439315796,0.011085635051131248,0.10737264901399612
1.6548426151275635,0.01102509442716837,0.11186378449201584
1.6451730728149414,0.010962997563183308,0.11628159880638123
1.6343640089035034,0.010893382132053375,0.12055793404579163
1.6236950159072876,0.010824771597981453,0.12478062510490417
1.6120402812957764,0.01074965763837099,0.12886103987693787
1.5995821952819824,0.01066924910992384,0.1328052282333374
1.5873141288757324,0.01059016864746809,0.13669131696224213
1.575231671333313,0.01051238365471363,0.14052073657512665
1.5633306503295898,0.010435867123305798,0.1442948281764984
1.55160653591156,0.01036058645695448,0.14801490306854248
1.5397619009017944,0.010284554213285446,0.15165330469608307
1.5258269309997559,0.010194607079029083,0.15500886738300323
1.5118391513824463,0.010104346089065075,0.15827545523643494
1.4974185228347778,0.010011228732764721,0.16141162812709808
1.4799556732177734,0.009897797368466854,0.164123997092247
1.4596000909805298,0.00976502988487482,0.1664012223482132
1.4361913204193115,0.009611827321350574,0.16819754242897034
1.4085290431976318,0.009430128149688244,0.1693400889635086
1.38151216506958,0.009252706542611122,0.17039327323436737
1.6012547016143799,0.010728546418249607,0.20248515903949738
2.483973503112793,0.01664937660098076,0.3218541443347931
2.481356143951416,0.01663852483034134,0.32925862073898315
2.4787442684173584,0.016627859324216843,0.33665382862091064
2.4761383533477783,0.01661738194525242,0.3440399765968323
2.4735379219055176,0.01660708710551262,0.35141721367836
2.470942735671997,0.016596974804997444,0.3587856888771057
2.4683430194854736,0.01658697985112667,0.3661441206932068
2.4657485485076904,0.016577167436480522,0.37349405884742737
2.4631595611572266,0.016567539423704147,0.38083577156066895
2.460576057434082,0.016558095812797546,0.38816946744918823
2.4579882621765137,0.016548767685890198,0.39549365639686584
2.4554057121276855,0.016539622098207474,0.40281009674072266
2.4528286457061768,0.016530660912394524,0.4101189374923706
2.4502475261688232,0.016521817073225975,0.41741877794265747
2.447680950164795,0.016513220965862274,0.4247129261493683
2.445110559463501,0.016504744067788124,0.43199843168258667
2.442535161972046,0.016496378928422928,0.43927517533302307
2.439976215362549,0.016488270834088326,0.44654712080955505
2.4374117851257324,0.016480272635817528,0.45381051301956177
2.4348530769348145,0.016472458839416504,0.4610675275325775
2.4322900772094727,0.01646476238965988,0.4683164358139038
2.4297311305999756,0.016457239165902138,0.4755589962005615
2.427177906036377,0.016449900344014168,0.48279571533203125
2.4246301651000977,0.01644274592399597,0.49002668261528015
2.4220781326293945,0.016435706987977028,0.4972500503063202
13.035721778869629,0.09054945409297943,3.954342842102051
10.6649808883667,0.07415103912353516,3.2709505558013916
10.654282569885254,0.07414677739143372,3.303464889526367
10.643609046936035,0.07414337247610092,3.3359830379486084
10.632957458496094,0.07414080947637558,3.3685052394866943
10.6222505569458,0.07413855940103531,3.401007652282715
10.611565589904785,0.07413715869188309,3.4335153102874756
10.600900650024414,0.07413659244775772,3.4660282135009766
10.59022045135498,0.07413661479949951,3.4985363483428955
10.579524040222168,0.07413722574710846,3.531039237976074
10.56884765625,0.07413867115974426,3.563549518585205
10.558195114135742,0.0741409882903099,3.5960700511932373
10.54748821258545,0.07414362579584122,3.6285743713378906
10.5368013381958,0.07414711266756058,3.661088466644287
10.526137351989746,0.07415146380662918,3.6936144828796387
10.515458106994629,0.07415641099214554,3.726139545440674
10.504761695861816,0.07416195422410965,3.7586636543273926
10.494051933288574,0.07416810840368271,3.791188955307007
10.483362197875977,0.07417511940002441,3.823727607727051
10.472695350646973,0.07418300956487656,3.8562824726104736
10.464152336120605,0.07420667260885239,3.889634370803833
10.476201057434082,0.07437728345394135,3.9307363033294678
10.513686180114746,0.0747297927737236,3.981640100479126
10.55183219909668,0.07508852332830429,4.033144950866699
10.59037971496582,0.07545167207717896,4.085160255432129
10.629335403442383,0.07581929862499237,4.137694358825684
10.668595314025879,0.07619068771600723,4.190712928771973
10.708403587341309,0.07656761258840561,4.244318008422852
10.748522758483887,0.07694840431213379,4.298422336578369
10.788920402526855,0.07733286172151566,4.353018760681152
10.829893112182617,0.07772311568260193,4.40823221206665
10.87116813659668,0.0781172513961792,4.463959693908691
10.911728858947754,0.07850798219442368,4.519786357879639
10.920574188232422,0.07867196947336197,4.5627522468566895
10.86679458618164,0.07838539034128189,4.57949161529541
10.81368350982666,0.07810363173484802,4.596228122711182
10.760903358459473,0.07782426476478577,4.612823963165283
10.708451271057129,0.07754727452993393,4.6292805671691895
10.656394004821777,0.07727313786745071,4.645631313323975
10.604657173156738,0.07700132578611374,4.66184663772583
10.553438186645508,0.07673326879739761,4.6780171394348145
10.502608299255371,0.07646804302930832,4.694091320037842
10.45211124420166,0.07620523124933243,4.710047245025635
10.401986122131348,0.07594513148069382,4.725905895233154
10.35216999053955,0.07568727433681488,4.741642475128174
10.302813529968262,0.07543276995420456,4.75732946395874
10.2535982131958,0.07517929375171661,4.772823333740234
10.204814910888672,0.07492897659540176,4.788261890411377
10.163371086120605,0.07473260164260864,4.8069167137146
10.149889945983887,0.07474227249622345,4.838700771331787
10.139034271240234,0.07477205246686935,4.871757507324219
10.128164291381836,0.07480251044034958,4.9048380851745605
10.11728572845459,0.0748336985707283,4.93794584274292
10.106396675109863,0.07486561685800552,4.971081256866455
10.09549331665039,0.07489822059869766,5.004242420196533
10.08458423614502,0.07493159174919128,5.0374345779418945
10.073698043823242,0.0749659463763237,5.07067346572876
10.062766075134277,0.07500076293945312,5.103924751281738
10.051826477050781,0.07503634691238403,5.137208938598633
10.040873527526855,0.07507264614105225,5.170523166656494
10.029912948608398,0.07510971277952194,5.203872203826904
10.018943786621094,0.07514753937721252,5.237255573272705
10.007963180541992,0.0751861110329628,5.27067232131958
9.99697494506836,0.07522545754909515,5.304126262664795
9.985977172851562,0.07526557147502899,5.337615966796875
9.974937438964844,0.07530620694160461,5.3711256980896
9.963919639587402,0.07534785568714142,5.404690265655518
9.952895164489746,0.07539030909538269,5.438296318054199
-3.3947644233703613,0.13436788320541382,19.927261352539062
-3.4543302059173584,0.13430745899677277,19.907794952392578
-3.5138332843780518,0.13424797356128693,19.88829231262207
-3.5732743740081787,0.1341894418001175,19.868751525878906
-3.6326823234558105,0.13413289189338684,19.84932518005371
-3.692030906677246,0.1340772807598114,19.829862594604492
-3.7513201236724854,0.13402259349822998,19.810359954833984
-3.8105812072753906,0.13396990299224854,19.790973663330078
-3.869786262512207,0.1339181810617447,19.77155303955078
-3.928950309753418,0.13386788964271545,19.752166748046875
-3.9880611896514893,0.133818581700325,19.732749938964844
-4.047149658203125,0.13377124071121216,19.71344566345215
-4.106172561645508,0.1337244212627411,19.694040298461914
-4.165173053741455,0.13367946445941925,19.674734115600586
-4.224124908447266,0.1336355060338974,19.6553955078125
-4.283045291900635,0.13359302282333374,19.63610076904297
-4.341917991638184,0.13355150818824768,19.616769790649414
-4.400758266448975,0.13351137936115265,19.59746742248535
-4.459570407867432,0.1334727257490158,19.578203201293945
-4.518338203430176,0.13343504071235657,19.55890655517578
-4.577081203460693,0.1333988457918167,19.539649963378906
-4.635798454284668,0.13336409628391266,19.520429611206055
-4.694476127624512,0.1333303451538086,19.501178741455078
-4.753132343292236,0.1332980841398239,19.48196792602539
-4.81174898147583,0.13326676189899445,19.46272087097168
-4.87034797668457,0.13323697447776794,19.443519592285156
-4.9289093017578125,0.13320811092853546,19.424278259277344
-4.987454414367676,0.13318075239658356,19.405078887939453
-5.045985221862793,0.13315491378307343,19.385923385620117
-5.104481220245361,0.13312998414039612,19.366724014282227
-5.162965297698975,0.13310657441616058,19.347570419311523
-5.221418380737305,0.13308413326740265,19.328380584716797
-5.279862880706787,0.13306322693824768,19.30923843383789
-5.338277816772461,0.1330432891845703,19.290056228637695
-5.396685600280762,0.13302485644817352,19.270917892456055
-5.455068588256836,0.1330074518918991,19.251750946044922
-5.513446807861328,0.13299153745174408,19.232624053955078
-5.571822643280029,0.13297712802886963,19.213537216186523
-5.630174160003662,0.13296370208263397,19.194414138793945
-5.688505172729492,0.13295131921768188,19.175264358520508
-5.746835708618164,0.132940411567688,19.156150817871094
-5.805145263671875,0.1329304724931717,19.136999130249023
-5.86345911026001,0.13292208313941956,19.117891311645508
-5.92177677154541,0.1329151839017868,19.09882164001465
-5.980057239532471,0.13290882110595703,19.07965087890625
-6.039459228515625,0.1329285204410553,19.064037322998047
-11.630703926086426,0.09046906232833862,7.068538188934326
-11.680574417114258,0.0906883105635643,7.049866199493408
-11.730697631835938,0.09090956300497055,7.031109809875488
-11.781112670898438,0.09113311022520065,7.012288570404053
-11.831685066223145,0.09135791659355164,6.993320465087891
-11.882661819458008,0.09158588200807571,6.974348068237305
-11.93380069732666,0.09181513637304306,6.955226421356201
-11.985085487365723,0.09204555302858353,6.935944080352783
-12.036783218383789,0.09227918833494186,6.916653156280518
-12.08864974975586,0.09251415729522705,6.897210121154785
-12.140817642211914,0.09275148063898087,6.877687931060791
-12.193257331848145,0.0929909273982048,6.858067512512207
-12.246001243591309,0.09323272854089737,6.838362216949463
-12.299065589904785,0.0934770256280899,6.81857967376709
-12.352405548095703,0.09372345358133316,6.798690319061279
-11.44877815246582,0.08672118932008743,6.255651950836182
-11.922125816345215,0.0901559516787529,6.4668731689453125
-12.513940811157227,0.09447451680898666,6.738282680511475
-12.56830883026123,0.09472893178462982,6.717901229858398
-12.623017311096191,0.0949859619140625,6.6974334716796875
-12.678035736083984,0.0952453762292862,6.676860809326172
-12.733343124389648,0.09550701081752777,6.656167507171631
-12.766279220581055,0.09560118615627289,6.623595237731934
-11.66273021697998,0.08719878643751144,6.005694389343262
-11.620994567871094,0.0867500975728035,5.939167022705078
-11.588186264038086,0.08637017011642456,5.877631664276123
-11.57776927947998,0.0861588642001152,5.827759265899658
-11.57024097442627,0.08597048372030258,5.779547214508057
-11.563152313232422,0.08578675240278244,5.731747150421143
-11.563236236572266,0.0856575071811676,5.687663555145264
-11.572931289672852,0.08560055494308472,5.648403167724609
-11.587716102600098,0.08558216691017151,5.611665725708008
-11.602177619934082,0.08556225150823593,5.574790954589844
-11.616512298583984,0.08554226905107498,5.537876129150391
-11.638107299804688,0.08557653427124023,5.504415035247803
-11.66848373413086,0.08567597717046738,5.475038528442383
-11.699190139770508,0.0857783630490303,5.445714473724365
-11.729785919189453,0.08588045090436935,5.416234970092773
-11.760366439819336,0.08598294109106064,5.386643886566162
-11.796279907226562,0.08612490445375443,5.359371662139893
-11.841896057128906,0.08633800595998764,5.33632755279541
-11.888533592224121,0.08655877411365509,5.31352424621582
-11.93532943725586,0.08678089827299118,5.290567398071289
-11.982341766357422,0.08700481802225113,5.267481803894043
-12.02949047088623,0.08722992986440659,5.244229793548584
-12.090752601623535,0.08755747228860855,5.226851940155029
-12.154623985290527,0.08790383487939835,5.210263252258301
-12.218472480773926,0.08824995160102844,5.19331693649292
-12.28472900390625,0.088613361120224,5.177038192749023
-12.386491775512695,0.08923245966434479,5.175230979919434
-12.552552223205566,0.09031341969966888,5.199437141418457
-13.217635154724121,0.09497832506895065,5.4274749755859375
-13.218279838562012,0.0948638990521431,5.38040828704834
-13.216374397277832,0.094732366502285,5.332426071166992
-13.214597702026367,0.09460297226905823,5.284626007080078
-13.210714340209961,0.09445972740650177,5.236118316650391
-13.199972152709961,0.09426873177289963,5.185059070587158
-13.185371398925781,0.0940515547990799,5.132685661315918
-13.17095947265625,0.09383713454008102,5.080599784851074
-13.151167869567871,0.09358581155538559,5.026669025421143
-13.117074966430664,0.09323430806398392,4.967569828033447
-13.077767372131348,0.09284748136997223,4.9068603515625
-13.038825035095215,0.09246499836444855,4.846667289733887
-13.000146865844727,0.09208612889051437,4.786947250366211
-12.941343307495117,0.09156658500432968,4.7202582359313965
-7.470181465148926,0.16602735221385956,-23.833961486816406
-7.380861759185791,0.16566456854343414,-23.804637908935547
-7.2919464111328125,0.1653052717447281,-23.775495529174805
-7.203429698944092,0.164949432015419,-23.746524810791016
-7.115246772766113,0.1645955890417099,-23.717527389526367
-7.02748441696167,0.1642458438873291,-23.688800811767578
-6.940079689025879,0.1638987958431244,-23.6601505279541
-6.853025913238525,0.1635543406009674,-23.631561279296875
-6.766353130340576,0.16321326792240143,-23.603151321411133
-6.680054187774658,0.1628754884004593,-23.574907302856445
-6.594096660614014,0.1625402718782425,-23.546730041503906
-6.508479118347168,0.16220764815807343,-23.51862144470215
-6.423224925994873,0.16187827289104462,-23.490680694580078
-6.338302135467529,0.16155140101909637,-23.462804794311523
-6.2537360191345215,0.1612277626991272,-23.43509864807129
-6.169496536254883,0.16090665757656097,-23.407461166381836
-6.085605144500732,0.16058869659900665,-23.379987716674805
-6.002033233642578,0.1602732241153717,-23.352581024169922
-5.918776988983154,0.15996016561985016,-23.32523536682129
-5.835859298706055,0.15965023636817932,-23.29805564880371
-5.753250598907471,0.1593427062034607,-23.270936965942383
-5.670973300933838,0.1590382605791092,-23.24398422241211
-5.589000225067139,0.1587361991405487,-23.217092514038086
-5.507350444793701,0.15843717753887177,-23.19036293029785
-5.425998210906982,0.15814051032066345,-23.163694381713867
-5.344939708709717,0.157846137881279,-23.137083053588867
-5.264195919036865,0.1575547605752945,-23.110633850097656
-5.183741092681885,0.15726572275161743,-23.084247589111328
-5.10357141494751,0.15697893500328064,-23.057918548583984
-5.023707389831543,0.15669511258602142,-23.031749725341797
-4.944122791290283,0.15641354024410248,-23.005640029907227
-4.8648362159729,0.15613485872745514,-22.97968292236328
-4.785804271697998,0.15585777163505554,-22.953691482543945
-4.707085132598877,0.15558423101902008,-22.927955627441406
-4.62861442565918,0.1553122103214264,-22.902177810668945
-4.550429821014404,0.15504305064678192,-22.876554489135742
-4.472508907318115,0.15477605164051056,-22.850990295410156
-4.394867420196533,0.15451186895370483,-22.825576782226562
-4.3174662590026855,0.1542491763830185,-22.80012321472168
-4.240340232849121,0.1539893001317978,-22.774826049804688
-4.1634840965271,0.15373218059539795,-22.749677658081055
-4.086879253387451,0.15347717702388763,-22.72458839416504
-4.010504722595215,0.15322358906269073,-22.699451446533203
-3.934410810470581,0.15297342836856842,-22.67456817626953
-3.8585429191589355,0.15272466838359833,-22.649639129638672
-3.7829322814941406,0.15247862040996552,-22.624862670898438
-3.7075605392456055,0.15223464369773865,-22.600141525268555
-3.632439374923706,0.15199331939220428,-22.575565338134766
-3.5575366020202637,0.15175338089466095,-22.550949096679688
-3.4828803539276123,0.1515161097049713,-22.52648162841797
-3.4084532260894775,0.15128085017204285,-22.50206756591797
-3.334252119064331,0.15104755759239197,-22.477703094482422
-3.2602896690368652,0.1508169174194336,-22.4534854888916
-3.1865487098693848,0.15058821439743042,-22.4293212890625
-3.113027811050415,0.15036150813102722,-22.405210494995117
-3.039724826812744,0.1501367688179016,-22.38115119934082
-2.966649055480957,0.14991456270217896,-22.357234954833984
-2.8937740325927734,0.14969368278980255,-22.33327865600586
-2.821122646331787,0.1494753658771515,-22.309467315673828
-2.748678684234619,0.14925891160964966,-22.28569793701172
-2.6764423847198486,0.14904440939426422,-22.261987686157227
-2.604421377182007,0.14883244037628174,-22.238420486450195
-2.5325918197631836,0.14862170815467834,-22.214807510375977
-2.460973024368286,0.1484134942293167,-22.19133949279785
-2.389551877975464,0.14820709824562073,-22.16791343688965
-2.3183274269104004,0.14800260961055756,-22.14454460144043
-2.2473058700561523,0.14780057966709137,-22.121315002441406
-2.176467180252075,0.14759977161884308,-22.098041534423828
-2.1058270931243896,0.14740140736103058,-22.074907302856445
-2.035374879837036,0.14720487594604492,-22.051822662353516
-1.9651081562042236,0.14701013267040253,-22.02878189086914
-1.8950257301330566,0.14681723713874817,-22.005794525146484
-1.8251253366470337,0.14662612974643707,-21.98285484313965
-1.7554049491882324,0.14643682539463043,-21.9599609375
-1.6858696937561035,0.1462498903274536,-21.937204360961914
-1.6165038347244263,0.1460641622543335,-21.91440773010254
-1.547318696975708,0.145880788564682,-21.89174461364746
-1.478305697441101,0.1456991583108902,-21.86912727355957
-1.4094634056091309,0.14551933109760284,-21.846561431884766
-1.340789556503296,0.14534124732017517,-21.82404136657715
-1.272282361984253,0.14516489207744598,-21.80156707763672
-1.2039400339126587,0.14499026536941528,-21.779136657714844
-1.1357611417770386,0.14481738209724426,-21.756755828857422
-1.0677478313446045,0.1446468085050583,-21.734506607055664
-0.9998896718025208,0.14447736740112305,-21.712217330932617
-0.9321893453598022,0.1443096250295639,-21.689971923828125
-0.8646486401557922,0.1441441923379898,-21.667861938476562
-0.7972617745399475,0.14398044347763062,-21.645793914794922
-0.7300242185592651,0.14381782710552216,-21.623685836791992
-0.6629402041435242,0.14365746080875397,-21.60171127319336
-0.596004843711853,0.1434987634420395,-21.57977867126465
-0.5292165279388428,0.14334174990653992,-21.557891845703125
-0.4625717103481293,0.14318585395812988,-21.535964965820312
-0.3960725665092468,0.14303216338157654,-21.5141658782959
-0.3297153413295746,0.1428801417350769,-21.492412567138672
-0.2634983956813812,0.1427297741174698,-21.470703125
-0.19742003083229065,0.142581045627594,-21.44903564453125
-0.13147862255573273,0.14243395626544952,-21.427413940429688
-0.06567248702049255,0.14228852093219757,-21.40583610534668
0.06554172188043594,0.047334443777799606,-21.36321258544922
0.1309530884027481,0.04728759452700615,-21.341768264770508
0.19623568654060364,0.047241274267435074,-21.32036018371582
0.26139113306999207,0.04719549044966698,-21.298995971679688
0.3264210820198059,0.04715024679899216,-21.277677536010742
0.3913271725177765,0.047105543315410614,-21.25640296936035
0.45610907673835754,0.04706117883324623,-21.235084533691406
0.5207719206809998,0.04701754078269005,-21.213895797729492
0.5853155255317688,0.04697442427277565,-21.192745208740234
0.6497414112091064,0.04693182185292244,-21.171632766723633
0.7140488624572754,0.04688958823680878,-21.150487899780273
0.7782443761825562,0.04684805870056152,-21.129467010498047
0.8423270583152771,0.04680705443024635,-21.108488082885742
0.9062949419021606,0.046766385436058044,-21.087467193603516
0.970156192779541,0.04672641679644585,-21.066566467285156
1.0339056253433228,0.046686794608831406,-21.045631408691406
1.0975478887557983,0.04664769396185875,-21.024738311767578
1.161084532737732,0.04660911485552788,-21.00388526916504
1.2245172262191772,0.046571046113967896,-20.98307228088379
1.2878475189208984,0.046533502638339996,-20.962305068969727
1.3510767221450806,0.04649646580219269,-20.941572189331055
1.414206624031067,0.046459946781396866,-20.92088508605957
1.477238655090332,0.04642394557595253,-20.900239944458008
1.5401684045791626,0.04638827219605446,-20.879552841186523
1.6030088663101196,0.0463532917201519,-20.85898780822754
1.6657499074935913,0.046318646520376205,-20.8383846282959
1.7283984422683716,0.0462845079600811,-20.817821502685547
1.7909562587738037,0.046250876039266586,-20.797298431396484
1.8534249067306519,0.04621775448322296,-20.776817321777344
1.915805697441101,0.046185143291950226,-20.756376266479492
1.9781001806259155,0.046153031289577484,-20.73597526550293
2.040302038192749,0.046121254563331604,-20.715534210205078
2.102428436279297,0.046090155839920044,-20.695215225219727
2.1644644737243652,0.04605938866734505,-20.674854278564453
2.2264199256896973,0.046029120683670044,-20.6545352935791
2.2882959842681885,0.04599935561418533,-20.63425636291504
2.3500850200653076,0.04596991464495659,-20.613935470581055
2.41180682182312,0.04594115540385246,-20.59373664855957
2.473444700241089,0.0459127239882946,-20.573501586914062
2.535008192062378,0.045884788036346436,-20.553302764892578
2.596499443054199,0.045857351273298264,-20.533143997192383
2.6579196453094482,0.045830413699150085,-20.513025283813477
2.7192606925964355,0.04580380767583847,-20.492870330810547
2.780533790588379,0.045777708292007446,-20.47275733947754
2.8417396545410156,0.04575209692120552,-20.452682495117188
2.9028797149658203,0.04572698101401329,-20.432645797729492
2.963956356048584,0.04570236802101135,-20.412649154663086
3.024958610534668,0.045678071677684784,-20.392614364624023
3.0858993530273438,0.04565427452325821,-20.372617721557617
3.146780252456665,0.04563097283244133,-20.3526611328125
3.2076027393341064,0.045608170330524445,-20.332744598388672
3.2683560848236084,0.045585691928863525,-20.31279182434082
3.3290531635284424,0.045563705265522,-20.292879104614258
3.389695405960083,0.045542214065790176,-20.27300262451172
3.45027232170105,0.045521050691604614,-20.25309181213379
3.5108091831207275,0.04550054296851158,-20.233291625976562
3.571284055709839,0.04548037797212601,-20.213462829589844
3.631695508956909,0.045460525900125504,-20.193593978881836
3.6920721530914307,0.045441336929798126,-20.173837661743164
3.752389430999756,0.04542247951030731,-20.154048919677734
3.8126614093780518,0.045404113829135895,-20.134296417236328
3.8728749752044678,0.045386072248220444,-20.11450958251953
3.9330456256866455,0.04536852240562439,-20.094758987426758
3.9931752681732178,0.04535146430134773,-20.075048446655273
4.053250789642334,0.04533474147319794,-20.05530548095703
4.113302230834961,0.04531867429614067,-20.03567123413086
4.1733012199401855,0.04530293121933937,-20.016002655029297
4.233249664306641,0.04528752341866493,-19.996301651000977
4.293163299560547,0.04527261480689049,-19.976640701293945
4.353044033050537,0.04525819793343544,-19.957019805908203
4.412875652313232,0.04524409770965576,-19.937355041503906
4.472677707672119,0.045230504125356674,-19.91773796081543
4.532451152801514,0.04521741345524788,-19.898160934448242
4.592179298400879,0.04520464316010475,-19.8785457611084
4.651880264282227,0.04519236460328102,-19.85896873474121
4.711556911468506,0.04518059268593788,-19.839433670043945
4.77119255065918,0.045169148594141006,-19.81986427307129
4.83080530166626,0.04515819624066353,-19.800331115722656
4.890378475189209,0.045147571712732315,-19.780763626098633
4.94993257522583,0.04513746127486229,-19.761240005493164
5.0094499588012695,0.04512767493724823,-19.741680145263672
5.0689496994018555,0.045118387788534164,-19.722158432006836
5.1284332275390625,0.045109596103429794,-19.702674865722656
5.187884330749512,0.04510115087032318,-19.68316078186035
5.247321605682373,0.04509320110082626,-19.663686752319336
5.306728363037109,0.045085590332746506,-19.64417839050293
5.366125106811523,0.04507847875356674,-19.624710083007812
5.425492763519287,0.045071713626384735,-19.605213165283203
5.4848527908325195,0.04506544768810272,-19.585750579833984
5.544205188751221,0.045059677213430405,-19.566326141357422
5.603532791137695,0.045054253190755844,-19.546871185302734
5.66283655166626,0.045049168169498444,-19.52738380432129
5.722137451171875,0.045044589787721634,-19.507936477661133
5.78143835067749,0.04504052549600601,-19.4885311126709
5.840697288513184,0.045036643743515015,-19.469022750854492
5.899977684020996,0.04503341764211655,-19.44961929321289
5.959240436553955,0.04503054916858673,-19.43018913269043
6.018487453460693,0.04502803459763527,-19.410730361938477
6.077739238739014,0.0450260266661644,-19.39130973815918
6.1369757652282715,0.045024361461400986,-19.371856689453125
6.196221828460693,0.045023221522569656,-19.352447509765625
6.255455017089844,0.04502243176102638,-19.333005905151367
6.314698219299316,0.0450221411883831,-19.313600540161133
6.3739333152771,0.04502222314476967,-19.294170379638672
6.433156490325928,0.045022640377283096,-19.274703979492188
6.492397308349609,0.0450235940515995,-19.25528335571289
6.551631927490234,0.04502490162849426,-19.2358341217041
6.610885143280029,0.045026738196611404,-19.216426849365234
6.670133590698242,0.0450289249420166,-19.19698715209961
6.7293782234191895,0.04503147304058075,-19.177518844604492
6.788646221160889,0.04503455013036728,-19.158092498779297
6.847938060760498,0.04503815248608589,-19.138704299926758
6.9072065353393555,0.04504195973277092,-19.119220733642578
6.966500759124756,0.04504629224538803,-19.099777221679688
7.025798797607422,0.04505099356174469,-19.080307006835938
7.085125923156738,0.04505622759461403,-19.060874938964844
7.144460201263428,0.04506183788180351,-19.041419982910156
7.203800201416016,0.045067813247442245,-19.021934509277344
7.2631754875183105,0.04507433623075485,-19.002492904663086
7.32253360748291,0.04508106783032417,-18.982954025268555
7.381954669952393,0.045088496059179306,-18.963525772094727
7.441361427307129,0.04509614408016205,-18.944002151489258
7.500809192657471,0.04510434344410896,-18.924522399902344
7.5602707862854,0.04511292278766632,-18.90501594543457
7.619749069213867,0.04512188583612442,-18.88548469543457
7.679268836975098,0.0451313816010952,-18.86598777770996
7.738783359527588,0.045141126960515976,-18.84640884399414
7.798370361328125,0.045151568949222565,-18.82693099975586
7.857954025268555,0.04516226425766945,-18.807371139526367
7.917558193206787,0.04517333582043648,-18.787778854370117
7.977214336395264,0.045184966176748276,-18.768230438232422
8.036895751953125,0.04519699141383171,-18.7486572265625
8.096602439880371,0.04520941898226738,-18.72905921936035
8.156341552734375,0.04522226005792618,-18.70944595336914
8.21613597869873,0.04523565620183945,-18.689868927001953
8.275931358337402,0.045249298214912415,-18.670202255249023
8.33578872680664,0.04526350647211075,-18.65057945251465
8.395679473876953,0.04527812451124191,-18.630931854248047
8.455605506896973,0.045293159782886505,-18.611265182495117
8.51559829711914,0.04530877247452736,-18.591642379760742
