2.372481270331642023e+00,-4.369281530380249023e-01,-7.225350013504037605e+00
2.402408132518961459e+00,-4.384209811687469482e-01,-7.222062030785160403e+00
2.432803037696686044e+00,-4.399862587451934814e-01,-7.219113403697931197e+00
2.463802482842619046e+00,-4.416460096836090088e-01,-7.216670037411721417e+00
2.495061383610141625e+00,-4.433391094207763672e-01,-7.214239706320379142e+00
2.526550301661568021e+00,-4.450600743293762207e-01,-7.211775016433912278e+00
2.558275114853538312e+00,-4.468095302581787109e-01,-7.209276858866890514e+00
2.590272769482598214e+00,-4.485933184623718262e-01,-7.206786389473798238e+00
2.622480024778408136e+00,-4.504004418849945068e-01,-7.204214263330089629e+00
2.655005388002781075e+00,-4.522485136985778809e-01,-7.201692619761092651e+00
2.687784201663017569e+00,-4.541264772415161133e-01,-7.199130184915000008e+00
2.720821327382187071e+00,-4.560346305370330811e-01,-7.196526235553160511e+00
2.754311306741337617e+00,-4.580040276050567627e-01,-7.194110721010169129e+00
2.789128372976162673e+00,-4.601731598377227783e-01,-7.192919703152410804e+00
2.824850710072142057e+00,-4.624712467193603516e-01,-7.192397669423936435e+00
2.860955287722377172e+00,-4.648134112358093262e-01,-7.191896618881265191e+00
2.897448567360695115e+00,-4.672002792358398438e-01,-7.191413181682117184e+00
2.934292846212104067e+00,-4.696252644062042236e-01,-7.190893827163014507e+00
2.971542071777967031e+00,-4.720964133739471436e-01,-7.190390581340283305e+00
3.009294798075466293e+00,-4.746281504631042480e-01,-7.190002572030103067e+00
3.047670885983036815e+00,-4.772379696369171143e-01,-7.189847224347760246e+00
3.087037896815479243e+00,-4.799800217151641846e-01,-7.190306003214445241e+00
3.127981121609662463e+00,-4.829399585723876953e-01,-7.191975110879962330e+00
3.170622078421962531e+00,-4.861319959163665771e-01,-7.194927996832813477e+00
3.214155620742634945e+00,-4.894329309463500977e-01,-7.198260148788136803e+00
3.258263075304280498e+00,-4.927943050861358643e-01,-7.201613953829295589e+00
3.303066352072792977e+00,-4.962332546710968018e-01,-7.205100569180702408e+00
3.348442919709096355e+00,-4.997310638427734375e-01,-7.208577407691361572e+00
-2.307259473984384357e-01,-4.997108280658721924e-01,-8.225121326165524493e+00
-2.025659693591768118e-01,-4.972264766693115234e-01,-8.203506147830598394e+00
-1.746833252617188137e-01,-4.947847127914428711e-01,-8.182098900375379458e+00
-1.470723144403178750e-01,-4.923855364322662354e-01,-8.160902535729526619e+00
-1.197267687243281920e-01,-4.900293052196502686e-01,-8.139923069803270295e+00
-9.264075315818587342e-02,-4.877119958400726318e-01,-8.119126203170685230e+00
-6.580867054948447148e-02,-4.854347407817840576e-01,-8.098525274199811719e+00
-3.922508829691562227e-02,-4.831964969635009766e-01,-8.078112237194190470e+00
-1.288407359100274263e-02,-4.809986054897308350e-01,-8.057901900589188315e+00
1.321881433079719059e-02,-4.788365960121154785e-01,-8.037856130023932621e+00
3.911696666161068592e-02,-4.768127501010894775e-01,-8.018898254298569839e+00
6.485237680602518040e-02,-4.749866127967834473e-01,-8.001565518145628886e+00
9.043376921779300304e-02,-4.732987284660339355e-01,-7.985323327458853981e+00
1.158351293121899772e-01,-4.716411232948303223e-01,-7.969201738043465433e+00
1.410689864327054899e-01,-4.700305759906768799e-01,-7.953352171658258918e+00
1.661354403029533522e-01,-4.684546291828155518e-01,-7.937664635958263659e+00
1.910378937380152742e-01,-4.669109880924224854e-01,-7.922119484475070195e+00
2.158296760623530375e-01,-4.654732346534729004e-01,-7.907379323781320579e+00
2.405877052268530214e-01,-4.642252624034881592e-01,-7.894197888539924435e+00
2.652644131633463687e-01,-4.630661606788635254e-01,-7.881668001390055522e+00
2.898189269797830647e-01,-4.619300365447998047e-01,-7.869198723685491892e+00
3.142547283015200144e-01,-4.608173072338104248e-01,-7.856794635313295139e+00
3.385731708561787734e-01,-4.597263634204864502e-01,-7.844442357695928791e+00
3.627787613485211615e-01,-4.586588442325592041e-01,-7.832157566190244502e+00
3.868724219219812355e-01,-4.576127827167510986e-01,-7.819922959358542869e+00
4.108573366499470580e-01,-4.565887749195098877e-01,-7.807744693040781669e+00
4.347360880686910178e-01,-4.555864334106445312e-01,-7.795620360283285422e+00
4.585115884340491554e-01,-4.546058773994445801e-01,-7.783551538915506995e+00
4.821853115664578304e-01,-4.536463022232055664e-01,-7.771531473704765602e+00
5.057606072034483979e-01,-4.527079463005065918e-01,-7.759563150624870786e+00
5.292398922171499542e-01,-4.517908096313476562e-01,-7.747647332588297076e+00
5.526248441572430004e-01,-4.508941173553466797e-01,-7.735777140516432837e+00
5.759170328112803716e-01,-4.500172734260559082e-01,-7.723948271969438117e+00
5.991203853282121017e-01,-4.491610825061798096e-01,-7.712168105162739096e+00
6.222462108238357992e-01,-4.483311176300048828e-01,-7.700486684308303964e+00
6.453808433027456992e-01,-4.475775957107543945e-01,-7.689348731309454621e+00
6.685568762233180529e-01,-4.469127357006072998e-01,-7.678861105370929252e+00
6.917065685537853170e-01,-4.462901949882507324e-01,-7.668612424344164680e+00
7.148111262755287854e-01,-4.456962943077087402e-01,-7.658481581113163017e+00
7.378547405385367242e-01,-4.451205134391784668e-01,-7.648375787462660114e+00
7.608786182567524037e-01,-4.445832073688507080e-01,-7.638473674532828994e+00
7.838999429177619938e-01,-4.440901875495910645e-01,-7.628826458783153797e+00
8.069704923019003218e-01,-4.436639845371246338e-01,-7.619630619644048863e+00
8.299980944891682810e-01,-4.432554543018341064e-01,-7.610453633500313231e+00
8.529845031594533999e-01,-4.428645074367523193e-01,-7.601294713313775375e+00
8.759277223028445469e-01,-4.424892663955688477e-01,-7.592137494533083952e+00
8.988369969369238710e-01,-4.421330690383911133e-01,-7.583010954962426275e+00
9.217062977494205889e-01,-4.417923390865325928e-01,-7.573883603958370792e+00
9.445450734871605469e-01,-4.414704144001007080e-01,-7.564784295479173082e+00
9.673471570525427055e-01,-4.411637187004089355e-01,-7.555682459683955798e+00
9.901240527130346081e-01,-4.408763349056243896e-01,-7.546612397339527156e+00
1.013065129458221136e+00,-4.406827986240386963e-01,-7.538219306627292227e+00
1.036241141911424801e+00,-4.406051635742187500e-01,-7.530689805142680271e+00
1.059408535545538044e+00,-4.405436515808105469e-01,-7.523158288614760103e+00
1.082569932034132432e+00,-4.404985904693603516e-01,-7.515627348559982046e+00
1.105732217961194586e+00,-4.404718279838562012e-01,-7.508112329677353536e+00
1.128884147473924404e+00,-4.404586851596832275e-01,-7.500572356777048810e+00
1.152041173970044685e+00,-4.404640495777130127e-01,-7.493049374493510939e+00
1.175204401876603910e+00,-4.404876828193664551e-01,-7.485539921306132882e+00
1.198361974153067777e+00,-4.405248463153839111e-01,-7.478003493562866311e+00
1.221529473940591082e+00,-4.405802786350250244e-01,-7.470479724911599284e+00
1.244700884257589735e+00,-4.406514465808868408e-01,-7.462946324692524058e+00
1.267885875272653173e+00,-4.407409131526947021e-01,-7.455424478870559035e+00
1.291072438220508989e+00,-4.408442080020904541e-01,-7.447875729128011102e+00
1.314290915352390510e+00,-4.409705102443695068e-01,-7.440376495510449217e+00
1.337608818780542386e+00,-4.411397874355316162e-01,-7.433093603585500198e+00
1.361184215577225576e+00,-4.413982331752777100e-01,-7.426412265277309466e+00
1.384853181992599769e+00,-4.416930675506591797e-01,-7.419885539505706618e+00
1.408557017739941131e+00,-4.420056641101837158e-01,-7.413355473781955141e+00
1.432300202181725712e+00,-4.423367679119110107e-01,-7.406827715561180803e+00
1.456077033044333113e+00,-4.426842033863067627e-01,-7.400283131048592367e+00
1.479993042603030329e+00,-4.430773258209228516e-01,-7.393963367655348229e+00
1.504172563588270339e+00,-4.435490071773529053e-01,-7.388136869085827563e+00
1.528448863466024044e+00,-4.440505206584930420e-01,-7.382397742753125769e+00
1.552802064161517226e+00,-4.445756375789642334e-01,-7.376691945990581978e+00
1.577207913586976318e+00,-4.451171457767486572e-01,-7.370959445620499650e+00
1.601678254576115901e+00,-4.456778764724731445e-01,-7.365221501928833625e+00
1.626202758593414011e+00,-4.462546408176422119e-01,-7.359450911834313658e+00
1.650808231580171093e+00,-4.468539655208587646e-01,-7.353699459691991791e+00
1.675471483789185534e+00,-4.474693834781646729e-01,-7.347913162881612337e+00
1.700194312862952195e+00,-4.481010735034942627e-01,-7.342091765669423786e+00
1.725004689216227405e+00,-4.487555921077728271e-01,-7.336286902562297207e+00
1.749877865109268793e+00,-4.494263529777526855e-01,-7.330443863948215899e+00
1.774828993707761704e+00,-4.501167535781860352e-01,-7.324588036099486388e+00
1.799860975740793068e+00,-4.508269727230072021e-01,-7.318719887794501666e+00
1.824960298465320818e+00,-4.515534639358520508e-01,-7.312809129353366799e+00
1.850177153927843987e+00,-4.523076713085174561e-01,-7.306944667514796876e+00
1.875889902825842448e+00,-4.531759023666381836e-01,-7.301806086175702148e+00
1.901994303883499438e+00,-4.541311264038085938e-01,-7.297169926121025441e+00
1.928416279143338574e+00,-4.551539123058319092e-01,-7.292878096372564123e+00
1.954940241262877798e+00,-4.561944901943206787e-01,-7.288534871905337553e+00
1.981587830977589615e+00,-4.572573304176330566e-01,-7.284173413842527367e+00
2.008361153031746227e+00,-4.583425223827362061e-01,-7.279791884692205173e+00
2.035263807870549613e+00,-4.594503343105316162e-01,-7.275390885908107563e+00
2.062296950853359512e+00,-4.605807662010192871e-01,-7.270966925008143455e+00
2.089463726832541113e+00,-4.617340564727783203e-01,-7.266519764340411136e+00
2.116766563051050376e+00,-4.629102945327758789e-01,-7.262047928396796692e+00
2.144208915718493813e+00,-4.641098678112030029e-01,-7.257551548282036968e+00
2.171815195400075726e+00,-4.653373956680297852e-01,-7.253063217412624830e+00
2.199543528668824521e+00,-4.665838778018951416e-01,-7.248511851396363781e+00
2.227441476851060642e+00,-4.678586721420288086e-01,-7.243965635010675364e+00
2.255519159794467932e+00,-4.691633284091949463e-01,-7.239432925209242420e+00
2.283809400691036551e+00,-4.705038070678710938e-01,-7.234955152143715651e+00
2.312739113073504882e+00,-4.719632267951965332e-01,-7.231145554782592022e+00
2.341937899641495235e+00,-4.734667539596557617e-01,-7.227438568510490491e+00
2.371368488668528673e+00,-4.750062525272369385e-01,-7.223770356108871304e+00
2.401482118556296008e+00,-4.766674637794494629e-01,-7.220764480894883874e+00
2.432161779297874915e+00,-4.784253239631652832e-01,-7.218226450801377148e+00
2.463154376460600314e+00,-4.802303016185760498e-01,-7.215785015251604761e+00
2.494405183815943783e+00,-4.820712804794311523e-01,-7.213355139870146537e+00
2.525886904327685478e+00,-4.839427769184112549e-01,-7.210892035184591542e+00
2.557603547709009550e+00,-4.858450293540954590e-01,-7.208394379769679006e+00
2.589593877467607275e+00,-4.877848029136657715e-01,-7.205905572981201601e+00
2.621793159712313859e+00,-4.897498190402984619e-01,-7.203334387409573658e+00
2.654310626284049235e+00,-4.917594194412231445e-01,-7.200813637970434833e+00
2.687081689118880234e+00,-4.938015043735504150e-01,-7.198252566635652272e+00
2.720112804825323138e+00,-4.958767890930175781e-01,-7.195652270728655431e+00
2.753568740493146372e+00,-4.980137646198272705e-01,-7.193206112492045001e+00
2.897256667351522097e-01,-4.991032183170318604e-01,-7.868189301586820505e+00
3.141555599087846318e-01,-4.979009926319122314e-01,-7.855788804746502763e+00
3.384681302360483812e-01,-4.967222213745117188e-01,-7.843439259781426642e+00
3.626673590147944104e-01,-4.955683946609497070e-01,-7.831153871295249758e+00
3.867548996690053364e-01,-4.944380819797515869e-01,-7.818921589657348292e+00
4.107337003752276061e-01,-4.933312535285949707e-01,-7.806743133817584557e+00
4.346072009406043435e-01,-4.922488033771514893e-01,-7.794626457258411634e+00
4.583762956297570135e-01,-4.911888539791107178e-01,-7.782556507605724150e+00
4.820442483993931937e-01,-4.901520311832427979e-01,-7.770539113124308450e+00
5.056130804581644433e-01,-4.891377389430999756e-01,-7.758570254986886461e+00
5.290867409363246843e-01,-4.881468415260314941e-01,-7.746657577061091260e+00
5.524657766864140562e-01,-4.871778786182403564e-01,-7.734789586337101674e+00
5.757525086134451797e-01,-4.862306118011474609e-01,-7.722964592934548733e+00
5.989499669216775679e-01,-4.853054881095886230e-01,-7.711186893127932152e+00
6.220656268650062160e-01,-4.844056963920593262e-01,-7.699483471391594946e+00
6.451434692905109181e-01,-4.835580885410308838e-01,-7.688074240843587148e+00
6.682303647841298933e-01,-4.827879965305328369e-01,-7.677166197363973765e+00
6.913478491334070775e-01,-4.821018278598785400e-01,-7.666810143788407750e+00
7.144415931213679016e-01,-4.814601540565490723e-01,-7.656683084023518937e+00
7.374788226164312732e-01,-4.808405339717864990e-01,-7.646600981670960806e+00
7.605572145169987586e-01,-4.802966117858886719e-01,-7.637000826305525791e+00
7.836124102304138361e-01,-4.797873198986053467e-01,-7.627547024664811381e+00
8.066756832637462793e-01,-4.793269634246826172e-01,-7.618355050751692836e+00
8.296955935998195919e-01,-4.788855612277984619e-01,-7.609180787341792040e+00
8.526745361294589820e-01,-4.784631729125976562e-01,-7.600024731695369518e+00
8.756104569407399119e-01,-4.780578315258026123e-01,-7.590871112488457584e+00
8.985118938963929658e-01,-4.776729345321655273e-01,-7.581746826270181039e+00
9.213740202227067577e-01,-4.773049056529998779e-01,-7.572623278569148297e+00
9.442050601466434046e-01,-4.769569933414459229e-01,-7.563526161519368962e+00
9.669998233986105696e-01,-4.766257107257843018e-01,-7.554427659645721604e+00
9.897693188623697402e-01,-4.763152897357940674e-01,-7.545361258798035209e+00
1.012738975063114832e+00,-4.761217236518859863e-01,-7.537095045296728912e+00
1.035907920792263681e+00,-4.760377109050750732e-01,-7.529566770476374238e+00
1.059068510405777985e+00,-4.759712815284729004e-01,-7.522037715989308815e+00
1.082223007978853069e+00,-4.759225547313690186e-01,-7.514508737632449531e+00
1.105378489885315396e+00,-4.758936762809753418e-01,-7.506996180790675766e+00
1.128523790155683937e+00,-4.758795201778411865e-01,-7.499458842698987660e+00
1.151673939717589246e+00,-4.758853316307067871e-01,-7.491938087765577237e+00
1.174830436517164678e+00,-4.759109318256378174e-01,-7.484431331309779445e+00
1.197981576310809704e+00,-4.759511947631835938e-01,-7.476897976795102707e+00
1.221141929490960010e+00,-4.760109782218933105e-01,-7.469375762383265283e+00
1.244306586719670538e+00,-4.760878980159759521e-01,-7.461844793243560758e+00
1.267484066559282585e+00,-4.761843383312225342e-01,-7.454323328207393295e+00
1.290662287330908153e+00,-4.762954115867614746e-01,-7.446772674266337155e+00
1.313863682838980029e+00,-4.764283895492553711e-01,-7.439248668646877505e+00
1.337134788591424428e+00,-4.765980541706085205e-01,-7.431865041054785515e+00
1.360595619866403538e+00,-4.768422544002532959e-01,-7.424914343869330580e+00
1.384164960009374390e+00,-4.771316945552825928e-01,-7.418164980635432393e+00
1.407841991423288697e+00,-4.774643182754516602e-01,-7.411599312421762065e+00
1.431594011278923606e+00,-4.778283238410949707e-01,-7.405123381177765474e+00
1.455446383329066951e+00,-4.782303869724273682e-01,-7.398787057811970769e+00
1.479432930914632571e+00,-4.786795079708099365e-01,-7.392657112841785505e+00
1.503637329382201404e+00,-4.791991114616394043e-01,-7.386909519278272995e+00
1.527923638797879846e+00,-4.797463417053222656e-01,-7.381213135742755505e+00
1.552270776135680652e+00,-4.803141653537750244e-01,-7.375513256979388643e+00
1.576668765901408698e+00,-4.808992445468902588e-01,-7.369782744309479661e+00
1.601131199783357939e+00,-4.815050363540649414e-01,-7.364046538146519438e+00
1.625647621915228047e+00,-4.821281135082244873e-01,-7.358277512812941623e+00
1.650245308155870116e+00,-4.827756881713867188e-01,-7.352528283061517733e+00
1.674901119690393791e+00,-4.834406971931457520e-01,-7.346744835310515143e+00
1.699615815946420749e+00,-4.841231405735015869e-01,-7.340925033820751011e+00
1.724418059481956478e+00,-4.848302304744720459e-01,-7.335121766436047075e+00
1.749283273850644527e+00,-4.855549633502960205e-01,-7.329280777445102757e+00
1.774226663150482608e+00,-4.863009154796600342e-01,-7.323427422158740541e+00
1.799250683659161076e+00,-4.870682060718536377e-01,-7.317561323476892809e+00
1.824341524009472471e+00,-4.878530502319335938e-01,-7.311651815222655060e+00
1.849533984772734563e+00,-4.886637330055236816e-01,-7.305759214555196834e+00
1.875203491337087858e+00,-4.895932376384735107e-01,-7.300559309439864641e+00
1.901347669051854927e+00,-4.906371533870697021e-01,-7.296012249264253846e+00
1.927761047339777267e+00,-4.917422235012054443e-01,-7.291721739366025190e+00
1.954276850572257640e+00,-4.928665161132812500e-01,-7.287380684497676953e+00
1.980916014608439912e+00,-4.940148293972015381e-01,-7.283021000185810223e+00
2.007680406050551092e+00,-4.951871931552886963e-01,-7.278640435674729403e+00
2.034574328628486306e+00,-4.963840842247009277e-01,-7.274240838982298563e+00
2.061598459825880081e+00,-4.976053237915039062e-01,-7.269817892066438247e+00
2.088756933670877114e+00,-4.988513886928558350e-01,-7.265372988076750360e+00
3.839167167326837937e-01,-4.378498494625091553e-01,-3.663412227098613805e+00
4.341823155210795537e-01,-4.843817055225372314e-01,-3.653601219806408729e+00
3.671075307145346134e-01,-4.231264293193817139e-01,-3.659839904955568546e+00
1.905487016629956454e-01,-2.610303163528442383e-01,-3.683165740649816833e+00
2.144470500141431035e-01,-2.832854986190795898e-01,-3.677687618671382719e+00
2.615769883457539358e-01,-3.270125091075897217e-01,-3.668164984189332234e+00
3.070877249128411979e-01,-3.693440258502960205e-01,-3.658315477414090910e+00
3.524896412326383732e-01,-4.116758704185485840e-01,-3.647905542454787486e+00
3.975916084820185770e-01,-4.538361132144927979e-01,-3.636969596813975691e+00
4.395200865497637110e-01,-4.931683540344238281e-01,-3.626046596389705723e+00
1.894122596391891733e-01,-2.639644145965576172e-01,-3.688635782675885988e+00
1.873677602706755874e-01,-2.622678279876708984e-01,-3.687149555748972851e+00
2.164868527205474624e-01,-2.897433936595916748e-01,-3.681255132198763214e+00
1.858330156129315291e-01,-2.612882554531097412e-01,-3.683865763620719047e+00
1.852416725279781851e-01,-2.609769701957702637e-01,-3.682206349863212047e+00
1.847577174384513743e-01,-2.607756853103637695e-01,-3.680533744037631561e+00
1.843453448798546557e-01,-2.606511116027832031e-01,-3.678851811570101660e+00
1.840461933899342206e-01,-2.606425583362579346e-01,-3.677151824540426883e+00
1.837906688753325746e-01,-2.606848776340484619e-01,-3.675444028315674849e+00
1.978929147408452494e-01,-2.742692530155181885e-01,-3.671060803326393174e+00
2.403994023420858994e-01,-3.146969676017761230e-01,-3.661022145716806619e+00
2.826579757662233128e-01,-3.549980223178863525e-01,-3.650486792925881296e+00
3.231526075295831912e-01,-3.937425017356872559e-01,-3.639768802041319695e+00
3.466546448604173047e-01,-4.167647063732147217e-01,-3.681913057622157481e+00
1.859131253484767043e-01,-2.645955085754394531e-01,-3.696032303877451852e+00
1.842250701090488718e-01,-2.631689310073852539e-01,-3.694487676165540968e+00
1.829986919196031625e-01,-2.621887028217315674e-01,-3.692907555282724630e+00
1.819456517624551406e-01,-2.613816857337951660e-01,-3.691318828855494338e+00
1.811356628690763415e-01,-2.608144283294677734e-01,-3.689709095203610456e+00
1.803528317703244621e-01,-2.602819800376892090e-01,-3.688103072306476271e+00
1.796525879992005859e-01,-2.598370611667633057e-01,-3.686492228467764587e+00
1.791743172894750824e-01,-2.596128284931182861e-01,-3.684854217743946059e+00
1.788059797163619180e-01,-2.595029175281524658e-01,-3.683202095556918465e+00
1.785163969822769481e-01,-2.594777643680572510e-01,-3.681538675781795611e+00
1.781726299933976687e-01,-2.594105303287506104e-01,-3.679884574004088194e+00
1.779117243951655603e-01,-2.594322562217712402e-01,-3.678216922425060709e+00
1.798686257317958503e-01,-2.615891098976135254e-01,-3.676149823081943602e+00
1.792039285413613570e-01,-2.612455189228057861e-01,-3.674542490692077834e+00
1.786569418011829669e-01,-2.610240578651428223e-01,-3.672916972991609796e+00
1.782011197921107293e-01,-2.608995735645294189e-01,-3.671276188669132967e+00
1.781787992984480429e-01,-2.612019777297973633e-01,-3.669547939242319146e+00
2.431665448784152694e-01,-3.241878747940063477e-01,-3.654045600460384513e+00
3.071017822780477413e-01,-3.863338828086853027e-01,-3.637934023691015373e+00
3.843333973566485096e-01,-4.600352048873901367e-01,-3.684107182876379838e+00
1.841312013444493800e-01,-2.672795355319976807e-01,-3.699654444866214753e+00
1.820902642228572343e-01,-2.654674351215362549e-01,-3.698139022936030251e+00
1.803989550784619311e-01,-2.640006542205810547e-01,-3.696610184474751648e+00
1.791817450728938610e-01,-2.629998326301574707e-01,-3.695047526438470342e+00
1.781315752691399190e-01,-2.621690034866333008e-01,-3.693478094577796966e+00
1.773651767929869116e-01,-2.616213560104370117e-01,-3.691884272750666884e+00
1.766113686999881693e-01,-2.610948979854583740e-01,-3.690295815067943241e+00
1.758733103347762672e-01,-2.605926990509033203e-01,-3.688711951915712994e+00
1.754000252273313354e-01,-2.603562176227569580e-01,-3.687096858821707901e+00
1.750601739606674201e-01,-2.602586448192596436e-01,-3.685464947414001990e+00
1.747747835413333561e-01,-2.602235972881317139e-01,-3.683825808143572189e+00
1.744269047560780272e-01,-2.601375281810760498e-01,-3.682197128692268784e+00
1.741250325069905180e-01,-2.601058781147003174e-01,-3.680561800565460118e+00
1.740613730868691977e-01,-2.603160738945007324e-01,-3.678885457528016989e+00
1.739704323778368256e-01,-2.605098783969879150e-01,-3.677211224762752639e+00
1.740143984254345355e-01,-2.608457207679748535e-01,-3.675509286098323170e+00
1.741020248393330139e-01,-2.612347900867462158e-01,-3.673794486959931493e+00
1.741925993127046990e-01,-2.616375684738159180e-01,-3.672073980789253511e+00
1.744081547570157653e-01,-2.621736526489257812e-01,-3.670322464284416775e+00
1.768111606103301980e-01,-2.648674547672271729e-01,-3.668100564307475331e+00
2.101151889788754890e-01,-2.979406416416168213e-01,-3.659099725608309761e+00
3.789380054487587746e-01,-4.623019099235534668e-01,-3.693313473353736054e+00
2.373035053367469338e-01,-3.237325549125671387e-01,-3.700865333155191728e+00
1.787439707058131599e-01,-2.664830982685089111e-01,-3.703513273747980339e+00
1.767756207377424449e-01,-2.646886110305786133e-01,-3.702003373619723980e+00
1.751176274390737753e-01,-2.632067799568176270e-01,-3.700487372011655562e+00
1.739058229258252375e-01,-2.621712386608123779e-01,-3.698945998722035000e+00
1.728583735935926846e-01,-2.613058090209960938e-01,-3.697400434211148834e+00
1.721676294175893407e-01,-2.607997953891754150e-01,-3.695826129915789515e+00
1.714720875182633719e-01,-2.602981925010681152e-01,-3.694258735526390058e+00
1.707558620912299485e-01,-2.597852945327758789e-01,-3.692700174005219882e+00
1.702304727265502304e-01,-2.594694495201110840e-01,-3.691123294215645778e+00
1.699252360957603791e-01,-2.593799829483032227e-01,-3.689520441300435660e+00
1.696258135054573568e-01,-2.593058645725250244e-01,-3.687917829476182519e+00
1.692997859703775365e-01,-2.592151165008544922e-01,-3.686320046972319187e+00
1.690063242530295273e-01,-2.591661810874938965e-01,-3.684718319393477159e+00
1.688606036982240877e-01,-2.592731118202209473e-01,-3.683093360587400777e+00
1.687854540984770058e-01,-2.594599723815917969e-01,-3.681455173523328295e+00
1.687753831078131483e-01,-2.597214877605438232e-01,-3.679803243081080755e+00
1.688538964399550757e-01,-2.600813508033752441e-01,-3.678131973308375713e+00
1.689423617781891096e-01,-2.604616582393646240e-01,-3.676454182926967462e+00
1.690763380345252642e-01,-2.608979642391204834e-01,-3.674762703583912327e+00
1.693360969765638213e-01,-2.614704668521881104e-01,-3.673040528715313169e+00
1.696907995259275825e-01,-2.621489167213439941e-01,-3.671291460517669858e+00
1.700722354904256051e-01,-2.628656625747680664e-01,-3.669527963532465353e+00
2.002256022980704042e-01,-2.933694124221801758e-01,-3.661257952452590558e+00
3.091359534052471325e-01,-4.028389453887939453e-01,-3.634900904758986417e+00
3.823973060894942932e-01,-4.768744409084320068e-01,-3.615372045437615256e+00
3.465332859137641996e-01,-4.380767941474914551e-01,-3.698216338809077186e+00
1.775490130345660500e-01,-2.698020040988922119e-01,-3.706948590618390327e+00
1.748644748159500217e-01,-2.672420442104339600e-01,-3.705477830741409129e+00
1.729228166618874685e-01,-2.654310166835784912e-01,-3.703979222608761557e+00
1.713338664152643798e-01,-2.639802992343902588e-01,-3.702472580049463780e+00
1.701414004976122829e-01,-2.629339694976806641e-01,-3.700947212875613346e+00
1.691205460403020222e-01,-2.620678544044494629e-01,-3.699417829728085749e+00
1.684472370657459361e-01,-2.615581452846527100e-01,-3.697862711467016172e+00
1.677776126247989552e-01,-2.610613107681274414e-01,-3.696313453537996896e+00
1.670969985659431778e-01,-2.605626285076141357e-01,-3.694771591114108578e+00
1.665674371239103113e-01,-2.602244019508361816e-01,-3.693217223204486643e+00
1.662346179153404435e-01,-2.600927948951721191e-01,-3.691641487287030898e+00
1.659489453224358702e-01,-2.600180804729461670e-01,-3.690060920776533138e+00
1.656371455264820103e-01,-2.599268257617950439e-01,-3.688484936765784816e+00
1.653482927971214878e-01,-2.598682641983032227e-01,-3.686906626053908731e+00
1.651702118954088139e-01,-2.599308490753173828e-01,-3.685311854290959310e+00
1.651038627279273197e-01,-2.601159214973449707e-01,-3.683698241798802009e+00
1.650648818030284737e-01,-2.603387534618377686e-01,-3.682077670613613574e+00
1.651466761133193462e-01,-2.606937587261199951e-01,-3.680433284355215662e+00
1.652378173571966702e-01,-2.610688209533691406e-01,-3.678782701712459247e+00
1.653362052805300575e-01,-2.614618539810180664e-01,-3.677125996168539412e+00
1.655502602300185089e-01,-2.619828283786773682e-01,-3.675442006524788141e+00
1.659140054248100515e-01,-2.626666724681854248e-01,-3.673721611911292761e+00
1.662881008193228816e-01,-2.633726000785827637e-01,-3.671990417637867488e+00
1.666447750183290832e-01,-2.640725672245025635e-01,-3.670253944665532675e+00
1.669792408202313005e-01,-2.647616863250732422e-01,-3.668513411583167017e+00
1.675831331172954464e-01,-2.657372355461120605e-01,-3.666703576858306057e+00
3.098990581296223734e-01,-4.084615707397460938e-01,-3.705431862678226551e+00
1.702557422849604318e-01,-2.670150399208068848e-01,-3.710686670056369874e+00
1.695841895711904801e-01,-2.664297223091125488e-01,-3.709106471485986489e+00
1.681654249486663755e-01,-2.650959193706512451e-01,-3.707583914796702018e+00
1.675008346978854590e-01,-2.645364701747894287e-01,-3.706021796224946652e+00
1.674774054843670701e-01,-2.646376192569732666e-01,-3.704415103826734779e+00
1.657439730554119972e-01,-2.630113959312438965e-01,-3.702954552389975618e+00
1.640510329686297730e-01,-2.614344954490661621e-01,-3.701510008644542715e+00
1.627323365452548742e-01,-2.602463364601135254e-01,-3.700047704613422361e+00
1.622832404628298253e-01,-2.599516808986663818e-01,-3.698508691491095846e+00
1.619355124446488770e-01,-2.597696781158447266e-01,-3.696961959379337692e+00
1.615886410106870397e-01,-2.595981061458587646e-01,-3.695417296158153952e+00
1.612111401752125417e-01,-2.594048082828521729e-01,-3.693878443876987383e+00
1.608164780494873991e-01,-2.592034637928009033e-01,-3.692344120952011366e+00
1.604430230822637693e-01,-2.590332329273223877e-01,-3.690809313735159858e+00
1.601563391467875075e-01,-2.589612007141113281e-01,-3.689264203953464438e+00
1.600887780739663757e-01,-2.591230571269989014e-01,-3.687687382080501841e+00
1.600176893020537339e-01,-2.592913806438446045e-01,-3.686109060049841180e+00
1.600941921628773468e-01,-2.596211135387420654e-01,-3.684504851141074511e+00
1.601908713895350278e-01,-2.599819898605346680e-01,-3.682893155250360540e+00
1.602815569388911232e-01,-2.603472173213958740e-01,-3.681277996733044233e+00
1.604480721374823560e-01,-2.608010768890380859e-01,-3.679644634507841072e+00
1.607444587134789771e-01,-2.613994777202606201e-01,-3.677981421999017897e+00
1.611019004472720173e-01,-2.620720267295837402e-01,-3.676298994909511286e+00
1.614394317693916836e-01,-2.627355158329010010e-01,-3.674612157081299735e+00
1.617594087180462825e-01,-2.633923888206481934e-01,-3.672920653383795475e+00
1.621642976528772095e-01,-2.641487419605255127e-01,-3.671202966058459971e+00
1.627922059907433994e-01,-2.651480734348297119e-01,-3.669427159110324688e+00
1.634356275903994238e-01,-2.661761641502380371e-01,-3.667635391048908566e+00
1.825210374506156530e-01,-2.863781154155731201e-01,-3.661568378756008268e+00
3.820048544053242789e-01,-4.943495094776153564e-01,-3.612387351729427820e+00
1.420932556178892625e+01,3.313966512680053267e+00,6.157511989260847862e+00
1.420215265073241540e+01,3.309896230697631392e+00,6.187754041784935488e+00
1.419497262810188332e+01,3.305943727493285689e+00,6.217921939260463660e+00
1.418784596094891270e+01,3.302149772644042525e+00,6.248020877244805149e+00
1.418145954705581424e+01,3.298971414566039595e+00,6.278092991063458861e+00
1.417647136648019135e+01,3.296849727630614790e+00,6.308195610092276695e+00
1.417143107246804767e+01,3.294816017150878462e+00,6.338256654662656864e+00
1.416634149795243935e+01,3.292871475219726118e+00,6.368277567136004791e+00
1.416118594952591891e+01,3.291004896163939986e+00,6.398258388478173408e+00
1.415636719186113091e+01,3.289485931396483931e+00,6.428235318703560353e+00
1.415187315365881560e+01,3.288306951522826704e+00,6.458215808516130529e+00
1.414736239015328323e+01,3.287239074707030806e+00,6.488173937796450907e+00
1.414292671564277448e+01,3.286344051361083540e+00,6.518121456688899862e+00
1.413974383467732210e+01,3.286412239074706587e+00,6.548194287822390436e+00
1.413769047938844459e+01,3.287363052368163618e+00,6.578403485433100606e+00
1.413816917684795271e+01,3.290140390396117720e+00,6.608947534734940454e+00
1.413867109132931610e+01,3.293061733245849165e+00,6.639547279873622365e+00
1.413916191923211407e+01,3.296104431152343306e+00,6.670200936459113272e+00
1.413965873688345809e+01,3.299280405044555220e+00,6.700913195732920435e+00
1.414013106113904605e+01,3.302569866180419478e+00,6.731682021313210029e+00
1.414061973918250992e+01,3.306000947952270064e+00,6.762515915199806216e+00
1.414112567004101173e+01,3.309574604034423384e+00,6.793417637607740645e+00
1.414163215823529285e+01,3.313280582427978072e+00,6.824387333790416399e+00
1.414213059871191369e+01,3.317113876342772993e+00,6.855426025125146872e+00
1.414264612981040514e+01,3.321091651916503462e+00,6.886540709206617095e+00
1.414316016446974444e+01,3.325202703475951704e+00,6.917730718696174286e+00
1.414366457319569292e+01,3.329442024230956587e+00,6.948997144035153894e+00
1.414417973636801662e+01,3.333824157714843306e+00,6.980346411363812287e+00
1.414469751975690848e+01,3.338344573974608931e+00,7.011779849495026085e+00
1.414523212147256892e+01,3.343013763427733931e+00,7.043302986736792448e+00
1.414576923211897430e+01,3.347822904586791548e+00,7.074915896512413482e+00
1.414630499749909198e+01,3.352770566940307173e+00,7.106620529210946557e+00
1.642690075718385145e+01,4.918806076049803799e+00,7.668638477865086678e+00
1.630323338207293915e+01,4.637833118438719815e+00,5.356453477307410616e+00
1.435906237740395675e+01,3.359079122543334517e+00,5.564684784879599277e+00
1.435062826706458239e+01,3.351864814758300337e+00,5.596953145267711704e+00
1.434258752383001223e+01,3.345041513442992720e+00,5.629058549220960828e+00
1.433454310048105462e+01,3.338347673416137251e+00,5.661037105777081635e+00
1.432645865858462209e+01,3.331758499145507368e+00,5.692893428693209579e+00
1.431837044837386586e+01,3.325297355651855025e+00,5.724627343882226604e+00
1.431030276776379573e+01,3.318978786468505415e+00,5.756240138875922341e+00
1.430238396246008570e+01,3.312886714935302290e+00,5.787729236421098378e+00
1.429475424406245665e+01,3.307111501693725142e+00,5.819094947926333639e+00
1.428716006213113232e+01,3.301486253738402876e+00,5.850352371716844857e+00
1.427961423871009039e+01,3.296019554138183150e+00,5.881504281312685656e+00
1.427209094532023315e+01,3.290692806243896040e+00,5.912554411265763754e+00
1.426460396104339168e+01,3.285514593124389204e+00,5.943505375259743317e+00
1.425716515058972611e+01,3.280492782592772993e+00,5.974360121549289637e+00
1.424974774220502205e+01,3.275608062744140181e+00,6.005121851755403029e+00
1.424239173872675401e+01,3.270887613296508345e+00,6.035793555216447004e+00
1.423505797367233505e+01,3.266303777694701704e+00,6.066378157507497981e+00
1.422774401005119493e+01,3.261855363845824751e+00,6.096878292952761846e+00
1.422058183692231914e+01,3.257627964019774947e+00,6.127300047030551866e+00
1.421415855807484618e+01,3.254005670547484907e+00,6.157667355000942422e+00
1.420772898132931772e+01,3.250499963760375532e+00,6.187967564412439891e+00
1.420127686297685443e+01,3.247100353240966353e+00,6.218202087027023595e+00
1.419483027706663414e+01,3.243825197219848189e+00,6.248374189393356204e+00
1.418901230144120440e+01,3.241081476211547407e+00,6.278521534587368613e+00
1.418449762835989247e+01,3.239312648773192915e+00,6.308700464981992440e+00
1.417997406741362809e+01,3.237658262252807173e+00,6.338846638441659742e+00
1.417544872002529921e+01,3.236123085021972212e+00,6.368962699934598071e+00
1.417094011228549633e+01,3.234719753265380415e+00,6.399052385833093659e+00
1.416641343780509210e+01,3.233424901962279829e+00,6.429115213319476219e+00
1.416189960201245945e+01,3.232258796691894087e+00,6.459155969519479790e+00
1.415737808778833440e+01,3.231208086013793501e+00,6.489175111271193508e+00
1.415286312994356344e+01,3.230282068252563032e+00,6.519176319503145578e+00
1.414836086871955878e+01,3.229485273361205611e+00,6.549162607595054197e+00
1.414461827656877979e+01,3.229309082031249556e+00,6.579225064528466227e+00
1.414458325867062527e+01,3.231698513031005415e+00,6.609748147432052079e+00
1.414489886095018534e+01,3.234444379806518111e+00,6.640363447330751789e+00
1.414539747938890812e+01,3.237437725067138228e+00,6.671057082444598052e+00
1.414592205869469055e+01,3.240575075149535689e+00,6.701812340121372280e+00
1.414642070845598809e+01,3.243823051452636275e+00,6.732624433655659324e+00
1.414693713394718699e+01,3.247210979461669478e+00,6.763502041059855863e+00
1.414746985048000205e+01,3.250738382339477095e+00,6.794447875193326603e+00
1.414800311606135708e+01,3.254395723342895064e+00,6.825462100251741937e+00
1.414852927675620364e+01,3.258178949356078657e+00,6.856545875740454932e+00
1.414905398599978703e+01,3.262091875076293501e+00,6.887702712107582670e+00
1.414959572548676192e+01,3.266147613525390181e+00,6.918938580458643628e+00
1.415011880341558914e+01,3.270323753356933150e+00,6.950249552442745227e+00
1.415063457638020950e+01,3.274627923965453657e+00,6.981640146054902907e+00
1.415115297074529011e+01,3.279067993164062056e+00,7.013114850876731587e+00
1.415166870563620449e+01,3.283641338348388228e+00,7.044675410105228686e+00
1.415220594696403289e+01,3.288364887237548384e+00,7.076329755878987271e+00
1.415274326851927533e+01,3.293225288391112837e+00,7.108076091360605808e+00
1.415330245131367093e+01,3.298237562179564986e+00,7.139922360925893940e+00
1.415386159713020042e+01,3.303388833999633345e+00,7.171866519894769532e+00
1.415441922838392408e+01,3.308678865432738814e+00,7.203910923569274871e+00
1.415500091161789520e+01,3.314125537872314009e+00,7.236065022323561635e+00
1.415558143627519350e+01,3.319713354110717329e+00,7.268325453729000074e+00
1.415616263592688817e+01,3.325444936752318892e+00,7.300695950429065384e+00
1.415676533336297815e+01,3.331334590911864790e+00,7.333184676228849952e+00
1.415736905704402560e+01,3.337370634078979048e+00,7.365789793640326266e+00
1.433357737625004091e+01,3.462990283966064009e+00,7.448548509327818756e+00
1.525996524256927955e+01,3.876739740371703657e+00,5.451215042202534278e+00
1.436772370700648338e+01,3.300180673599242720e+00,5.563951578560432765e+00
1.435860020065594433e+01,3.292658329010009322e+00,5.596327562567953606e+00
1.434977948436689132e+01,3.285461425781249556e+00,5.628538582050075512e+00
1.434095002788463447e+01,3.278389453887939009e+00,5.660613383258800368e+00
1.433208408835839087e+01,3.271423101425170454e+00,5.692556035317039687e+00
1.432322746272201286e+01,3.264590740203856978e+00,5.724365957631492918e+00
1.431439585271626136e+01,3.257902145385741743e+00,5.756045012164615393e+00
1.430601401844853626e+01,3.251628875732421431e+00,5.787578535982164318e+00
1.429838528868856073e+01,3.245964527130126509e+00,5.818966504047335064e+00
1.429079209509891157e+01,3.240447521209716353e+00,5.850246199296001315e+00
1.428324964551083198e+01,3.235087156295775923e+00,5.881420338316337926e+00
1.427572781690976989e+01,3.229863405227660689e+00,5.912492764096926479e+00
1.426824134334359861e+01,3.224785089492797407e+00,5.943466034772591833e+00
1.426080495116490710e+01,3.219860553741454634e+00,5.974343095831917694e+00
1.425338853008597617e+01,3.215070962905883345e+00,6.005127149639960749e+00
1.424603542066385664e+01,3.210442304611205611e+00,6.035821225761137221e+00
1.423870168854111462e+01,3.205947160720824751e+00,6.066428177406516298e+00
1.423139157142639633e+01,3.201586723327636275e+00,6.096950756597955490e+00
1.422437243584261957e+01,3.197532653808593306e+00,6.127398623197690242e+00
1.421925274586545385e+01,3.194816827774047407e+00,6.157831117764581030e+00
1.421412262739147891e+01,3.192213773727416548e+00,6.188212377238272666e+00
1.420896297873204972e+01,3.189710378646850142e+00,6.218543631781338732e+00
1.420380044696278077e+01,3.187324047088622603e+00,6.248827955648601495e+00
1.419882411736269390e+01,3.185175895690917525e+00,6.279078256388229029e+00
1.419430014806183493e+01,3.183437108993529829e+00,6.309317006013482221e+00
1.418976633918568453e+01,3.181810617446898970e+00,6.339522890372182751e+00
1.418524074570523474e+01,3.180307865142821822e+00,6.369699353299275835e+00
1.418071284493966111e+01,3.178921937942504439e+00,6.399847914623513212e+00
1.417617545111379407e+01,3.177648067474364790e+00,6.429970175369807528e+00
1.417165232502107486e+01,3.176501989364623579e+00,6.460070452836009558e+00
1.416713008825771425e+01,3.175474882125854048e+00,6.490149971652522609e+00
1.416259584685830752e+01,3.174558401107787642e+00,6.520209578567128794e+00
1.415807668401927266e+01,3.173769950866698775e+00,6.550254402086688188e+00
1.415389657631101983e+01,3.173319101333617720e+00,6.580325396334442800e+00
1.415165530523898596e+01,3.174240589141845259e+00,6.610630867269454036e+00
1.415089449138476851e+01,3.176240921020507368e+00,6.641149248747741041e+00
1.415137286722849908e+01,3.179166793823241743e+00,6.671877536162151401e+00
1.415189860765484475e+01,3.182248115539550337e+00,6.702670375241734035e+00
1.415240222301028794e+01,3.185440301895141157e+00,6.733520602690987289e+00
1.415292551159685353e+01,3.188771247863769087e+00,6.764436858637777661e+00
1.415347126757514395e+01,3.192243337631225142e+00,6.795422537110530570e+00
1.415399998283112737e+01,3.195831298828124556e+00,6.826473753175057446e+00
1.415454487902679226e+01,3.199558258056640181e+00,6.857598738107268055e+00
1.415511398029002343e+01,3.203429222106933150e+00,6.888801705232697969e+00
1.415566493699051520e+01,3.207417964935302290e+00,6.920077759304172460e+00
1.415622335947532129e+01,3.211541414260863814e+00,6.951434145759058048e+00
1.415676591574647247e+01,3.215785503387450728e+00,6.982868970282525289e+00
1.415730965726935686e+01,3.220161914825439009e+00,7.014388175566691253e+00
1.415784503379159887e+01,3.224665641784667525e+00,7.045992346896399638e+00
1.415839906102778656e+01,3.229314804077147993e+00,7.077690009573022856e+00
1.415894129016647796e+01,3.234090566635131392e+00,7.109477399021029598e+00
1.415948306714658145e+01,3.239001035690307173e+00,7.141359569571408272e+00
1.416004189413095560e+01,3.244059324264525923e+00,7.173343784430906922e+00
1.416060110642152914e+01,3.249254465103148970e+00,7.205428639437888805e+00
1.416116300959689411e+01,3.254590034484862837e+00,7.237618115078508829e+00
1.416174463618017043e+01,3.260077714920043501e+00,7.269919107531061186e+00
1.416232741213315016e+01,3.265706539154052290e+00,7.302330293935148653e+00
1.416292977889816562e+01,3.271490097045897993e+00,7.334859671554417204e+00
1.416353649253528069e+01,3.277419328689574751e+00,7.367506341383721846e+00
1.416469857115256126e+01,3.283862590789794478e+00,7.400430171910205246e+00
1.416761541474379271e+01,3.291625022888183150e+00,7.433995400482433347e+00
1.417203356327955710e+01,3.300544500350951704e+00,7.468164560455996082e+00
1.417720144526635018e+01,3.310124158859252486e+00,7.502741963924056456e+00
1.418267787746317232e+01,3.320071935653686079e+00,7.537608675078525167e+00
1.418915318649507640e+01,3.330855607986449751e+00,7.572994338795061786e+00
1.419642360489974031e+01,3.342343568801879439e+00,7.608856871695876656e+00
1.420408032297833678e+01,3.354264497756957564e+00,7.645080246539656343e+00
1.649484589030164372e+01,4.912890911102294034e+00,8.455056475482281897e+00
1.448330511123283770e+01,3.327129125595092329e+00,5.293753685348397298e+00
1.446415830925169210e+01,3.312307119369506392e+00,5.328919948341046542e+00
1.444573537131753405e+01,3.298091650009154829e+00,5.363708017821489094e+00
1.442874536348625547e+01,3.284928798675536665e+00,5.398052452042263027e+00
1.441222745089937796e+01,3.272207260131835493e+00,5.432088151920349439e+00
1.439692168317802512e+01,3.260392665863036665e+00,5.465750529703528926e+00
1.438291500359901143e+01,3.249536752700805220e+00,5.499056455202381066e+00
1.436906781285212276e+01,3.238916635513305220e+00,5.532136562544053504e+00
1.435633307921361457e+01,3.229132652282714400e+00,5.564915828252039454e+00
1.434637408574418771e+01,3.221232175827025923e+00,5.597286958631602083e+00
1.433702853664966881e+01,3.213847637176513228e+00,5.629460455957452147e+00
1.432776845284425526e+01,3.206644296646117720e+00,5.661485149548386886e+00
1.431850493813366221e+01,3.199565410614013228e+00,5.693370451439658808e+00
1.430931003636726295e+01,3.192655086517333540e+00,5.725114990906832624e+00
1.430014834779950839e+01,3.185890674591064009e+00,5.756724145560389694e+00
1.429122362760046983e+01,3.179399251937865767e+00,5.788192603491364885e+00
1.428264646655208026e+01,3.173249483108520064e+00,5.819523247321004789e+00
1.427404446755794076e+01,3.167206525802611861e+00,5.850735744735206190e+00
1.426547961994648261e+01,3.161308288574218306e+00,5.881830686357845117e+00
1.425691846764514992e+01,3.155532836914062056e+00,5.912811640304468597e+00
1.424836859444340398e+01,3.149884700775146040e+00,5.943680977948225141e+00
1.423987621615547638e+01,3.144391775131225142e+00,5.974441040769257860e+00
1.423404475826419002e+01,3.140691757202147993e+00,6.005098986004935746e+00
1.422861193475632824e+01,3.137360811233520064e+00,6.035688944052838956e+00
1.422318991494621265e+01,3.134154796600341353e+00,6.066215222847691102e+00
1.421778103297382501e+01,3.131073713302611861e+00,6.096680365197270746e+00
1.421246150842785561e+01,3.128166675567626509e+00,6.127088871714138740e+00
1.420782466384567222e+01,3.125806093215941939e+00,6.157463739284824378e+00
1.420319633614461630e+01,3.123567819595336470e+00,6.187794009722990651e+00
1.419855551107719727e+01,3.121437788009643111e+00,6.218081156510603336e+00
1.419394074053352206e+01,3.119441032409667525e+00,6.248329183448134039e+00
1.418932052868851912e+01,3.117556571960448775e+00,6.278539014855789802e+00
1.418472293545866059e+01,3.115803003311156782e+00,6.308714628672309033e+00
1.418011885583767295e+01,3.114161252975463423e+00,6.338856639016248629e+00
1.417552682005976905e+01,3.112642765045165572e+00,6.368968573684796297e+00
1.417094392149464177e+01,3.111246109008788618e+00,6.399052699973709402e+00
1.416635630558735315e+01,3.109961986541747603e+00,6.429110203245813615e+00
1.416179677645139634e+01,3.108811616897582564e+00,6.459146325661580867e+00
1.415723291200502665e+01,3.107774257659911665e+00,6.489160601962566055e+00
1.415268275390045893e+01,3.106861352920531782e+00,6.519157146403684600e+00
1.414812816932581896e+01,3.106061458587646040e+00,6.549136433382252598e+00
1.414358862305923203e+01,3.105387210845946822e+00,6.579102963123906633e+00
1.413929052330683156e+01,3.104981899261474165e+00,6.609087494554709785e+00
1.413737292564086978e+01,3.106203317642211470e+00,6.639377158771949006e+00
1.413681323854097371e+01,3.108406543731689009e+00,6.669878491308782742e+00
1.413709538638520335e+01,3.111265420913695845e+00,6.700545290945756349e+00
1.413752523351546486e+01,3.114340305328368697e+00,6.731291631906327844e+00
1.413796669068054612e+01,3.117545843124389204e+00,6.762101754604143977e+00
1.413840829710404101e+01,3.120875120162963423e+00,6.792976385218171487e+00
1.413885570740507980e+01,3.124332427978515181e+00,6.823918974603641274e+00
1.413931124492063240e+01,3.127919673919677290e+00,6.854932609353415529e+00
1.413977010433527148e+01,3.131634473800658736e+00,6.886019101728511060e+00
1.414024173408668084e+01,3.135484218597411665e+00,6.917182991432294870e+00
1.414071515369322007e+01,3.139461994171142134e+00,6.948424835336209249e+00
1.414119126099815560e+01,3.143569231033324751e+00,6.979747453248168476e+00
1.414167047591777227e+01,3.147806882858275923e+00,7.011153715097843353e+00
1.414216081666049085e+01,3.152181625366210493e+00,7.042648132175196807e+00
1.414269926792567134e+01,3.156717300415038618e+00,7.074241574019316303e+00
1.414327768127680329e+01,3.161410331726073775e+00,7.105936084557711752e+00
1.414387747794011041e+01,3.166249036788939986e+00,7.137730579301530653e+00
1.414449004575880231e+01,3.171229362487792525e+00,7.169626437185401713e+00
1.414507688219626225e+01,3.176326990127563032e+00,7.201617170130412582e+00
1.414567685287859078e+01,3.181568622589110884e+00,7.233714996603680447e+00
1.414623770075308862e+01,3.186921119689940962e+00,7.265909578290241200e+00
1.414681821757647917e+01,3.192423105239867720e+00,7.298218418061496848e+00
1.414739983167833337e+01,3.198064565658568892e+00,7.330640073871278695e+00
1.414958754495912530e+01,3.204894542694091353e+00,7.363624222982688927e+00
1.415287085463945793e+01,3.212584972381591353e+00,7.397060210320781870e+00
1.415797998459352414e+01,3.221620321273803267e+00,7.431185985040117181e+00
1.416314567120477363e+01,3.230846643447875532e+00,7.465513790619764833e+00
1.416830619596001384e+01,3.240225076675414595e+00,7.500029404563141711e+00
1.417352595314386043e+01,3.249800205230712447e+00,7.534756402683870924e+00
1.417876883103850005e+01,3.259549856185912642e+00,7.569687986701393534e+00
1.418401389556810344e+01,3.269462108612060103e+00,7.604821594541918195e+00
1.418931130028698817e+01,3.279571771621703657e+00,7.640177419054972496e+00
1.419514653403170534e+01,3.290203809738158736e+00,7.675924877087638265e+00
1.420223976490229312e+01,3.301841735839843306e+00,7.712327949241699621e+00
1.421039385485179274e+01,3.314361333847045454e+00,7.749346949264915629e+00
1.596946567928569927e+01,4.497644901275633877e+00,8.415992256508898706e+00
1.608317373645757087e+01,4.261575222015379971e+00,5.036067414768654160e+00
1.448642685004465136e+01,3.264151334762572798e+00,5.293334300354636923e+00
1.446728778687347550e+01,3.249621391296386275e+00,5.328519138558379886e+00
1.444947115595875076e+01,3.236058712005614790e+00,5.363252780839642853e+00
1.443430102066944265e+01,3.224281311035155806e+00,5.397410046186670307e+00
1.441973732036099420e+01,3.213018417358397993e+00,5.431266373038967643e+00
1.440553698991254805e+01,3.202116489410399947e+00,5.464861227574938418e+00
1.439158372021955579e+01,3.191502094268798384e+00,5.498215489941764567e+00
1.437771252821059242e+01,3.181071519851684126e+00,5.531351398353533177e+00
1.436498819813317240e+01,3.171482086181640181e+00,5.564183154329882086e+00
1.435471048583151621e+01,3.163536071777343306e+00,5.596632787082408633e+00
1.434534433009529408e+01,3.156280040740966353e+00,5.628859261521315105e+00
1.433606746779959096e+01,3.149204730987548384e+00,5.660936292879741316e+00
1.432678956600945064e+01,3.142253160476684126e+00,5.692873592540414585e+00
1.431758123716108955e+01,3.135467767715453657e+00,5.724669820958383504e+00
