-4.380454063415527,-0.15991978347301483,-2.7363808155059814
-4.382418155670166,-0.1606101393699646,-2.7751357555389404
-4.384395122528076,-0.16131240129470825,-2.814225196838379
-4.386395454406738,-0.16202718019485474,-2.853663206100464
-4.388408660888672,-0.16275429725646973,-2.8934507369995117
-4.390439510345459,-0.16349413990974426,-2.933598041534424
-4.392492294311523,-0.164247065782547,-2.9741156101226807
-4.394564151763916,-0.16501319408416748,-3.015009641647339
-4.39665412902832,-0.16579273343086243,-3.0562877655029297
-4.39876127243042,-0.16658586263656616,-3.0979573726654053
-4.400892734527588,-0.16739308834075928,-3.1400318145751953
-4.403042316436768,-0.16821447014808655,-3.182515859603882
-4.405214786529541,-0.16905038058757782,-3.22542142868042
-4.407410621643066,-0.16990113258361816,-3.2687582969665527
-4.409625053405762,-0.17076681554317474,-3.312532663345337
-4.411862850189209,-0.17164789140224457,-3.356757640838623
-4.414124488830566,-0.1725446581840515,-3.4014434814453125
-4.41641092300415,-0.17345742881298065,-3.4466006755828857
-4.418720722198486,-0.17438648641109467,-3.492239475250244
-4.421054363250732,-0.17533212900161743,-3.5383708477020264
-4.423418998718262,-0.1762949824333191,-3.5850110054016113
-4.425806522369385,-0.17727504670619965,-3.6321654319763184
-4.428218841552734,-0.17827273905277252,-3.679847240447998
-4.430660247802734,-0.1792885810136795,-3.72807240486145
-4.433131694793701,-0.18032297492027283,-3.776853322982788
-4.435629367828369,-0.181376114487648,-3.826200008392334
-4.438154697418213,-0.18244850635528564,-3.8761274814605713
-4.440711975097656,-0.18354065716266632,-3.9266517162323
-4.443304061889648,-0.1846531182527542,-3.977790355682373
-4.445921897888184,-0.1857859343290329,-4.0295491218566895
-4.448574066162109,-0.18693991005420685,-4.0819501876831055
-4.451262474060059,-0.18811553716659546,-4.135011196136475
-4.453980922698975,-0.18931305408477783,-4.188742160797119
-4.456736087799072,-0.19053322076797485,-4.243165493011475
-4.459527015686035,-0.19177648425102234,-4.298296928405762
-4.46235466003418,-0.19304338097572327,-4.354154586791992
-4.465344429016113,-0.19433990120887756,-4.410879611968994
-4.468395233154297,-0.19566228985786438,-4.468395233154297
-4.471494197845459,-0.19701051712036133,-4.526707172393799
-4.474617958068848,-0.19838419556617737,-4.585812091827393
-4.477752208709717,-0.19978322088718414,-4.645713806152344
-4.480874538421631,-0.2012072056531906,-4.706409931182861
-4.484078407287598,-0.20266097784042358,-4.7680182456970215
-4.487412452697754,-0.20414745807647705,-4.830615997314453
-4.490699768066406,-0.20565927028656006,-4.894035816192627
-4.494035243988037,-0.20720148086547852,-4.958403587341309
-4.4973978996276855,-0.20877385139465332,-5.023720741271973
-4.72096061706543,-0.2206684648990631,-5.339008808135986
6.097195148468018,-0.30225813388824463,-4.521988391876221
5.901008129119873,-0.2912127375602722,-4.320615291595459
5.771377086639404,-0.28354695439338684,-4.171546936035156
5.667545318603516,-0.2772214710712433,-4.043787002563477
5.607370376586914,-0.27308765053749084,-3.949155569076538
5.553703784942627,-0.26931527256965637,-3.860598564147949
5.5010786056518555,-0.26563531160354614,-3.7741637229919434
5.449586868286133,-0.26205065846443176,-3.68986439704895
5.398218154907227,-0.25851142406463623,-3.6069741249084473
5.347978115081787,-0.25506457686424255,-3.526132822036743
5.298976421356201,-0.2517138719558716,-3.447362184524536
5.255756378173828,-0.24867284297943115,-3.373528242111206
5.226258277893066,-0.2463117241859436,-3.3094916343688965
5.202066898345947,-0.24422723054885864,-3.2496259212493896
5.178685188293457,-0.24220570921897888,-3.191012144088745
5.156266212463379,-0.24025334417819977,-3.133711099624634
5.136473655700684,-0.2384464293718338,-3.078683853149414
5.1181559562683105,-0.23672990500926971,-3.0251736640930176
5.100180149078369,-0.23505043983459473,-2.972473382949829
5.082428455352783,-0.2334020435810089,-2.920497417449951
5.064894676208496,-0.23178397119045258,-2.869227409362793
5.047729015350342,-0.2302025854587555,-2.818732500076294
5.032171726226807,-0.2287137508392334,-2.7696774005889893
5.019032955169678,-0.2273530513048172,-2.722454786300659
5.006474018096924,-0.22603610157966614,-2.676016092300415
4.994058132171631,-0.22474268078804016,-2.630110025405884
4.981813907623291,-0.2234737128019333,-2.584740400314331
4.972708702087402,-0.22236157953739166,-2.5414130687713623
4.965852737426758,-0.22136500477790833,-2.4996001720428467
4.959417343139648,-0.2204015552997589,-2.4583370685577393
4.953142166137695,-0.21945932507514954,-2.4174811840057373
4.94691801071167,-0.2185332179069519,-2.3769705295562744
4.9407639503479,-0.21762384474277496,-2.3368072509765625
4.934654235839844,-0.21672984957695007,-2.2969725131988525
4.9285888671875,-0.21585102379322052,-2.257459878921509
4.922579765319824,-0.21498769521713257,-2.2182679176330566
4.9166131019592285,-0.21413904428482056,-2.179384708404541
4.910862922668457,-0.21331243216991425,-2.1408798694610596
4.90676736831665,-0.212569922208786,-2.1033599376678467
4.904403209686279,-0.2119140923023224,-2.066816806793213
4.902069091796875,-0.21127092838287354,-2.030503511428833
4.8997483253479,-0.21063952147960663,-1.994408369064331
4.897427558898926,-0.21001917123794556,-1.9585214853286743
4.895135402679443,-0.20941096544265747,-1.9228498935699463
4.892879009246826,-0.2088150680065155,-1.8873916864395142
4.890957832336426,-0.20824411511421204,-1.8522555828094482
4.890640735626221,-0.20775176584720612,-1.8179022073745728
4.891410827636719,-0.20731553435325623,-1.7841054201126099
4.892177104949951,-0.20688888430595398,-1.7504489421844482
4.892938137054443,-0.20647166669368744,-1.7169287204742432
4.893697738647461,-0.20606392621994019,-1.6835427284240723
4.894454479217529,-0.20566552877426147,-1.6502870321273804
4.89520788192749,-0.20527635514736176,-1.6171581745147705
4.895959377288818,-0.20489640533924103,-1.5841537714004517
4.896707057952881,-0.20452547073364258,-1.55126953125
4.897452354431152,-0.20416359603405,-1.5185030698776245
4.898195266723633,-0.2038106471300125,-1.4858512878417969
4.8989362716674805,-0.20346659421920776,-1.4533110857009888
4.899836540222168,-0.2031380534172058,-1.4209262132644653
4.901256084442139,-0.20283980667591095,-1.388792634010315
4.904641151428223,-0.2026313990354538,-1.3572969436645508
4.908417224884033,-0.20244744420051575,-1.325972318649292
4.9121809005737305,-0.2022712230682373,-1.2947018146514893
4.9159345626831055,-0.20210273563861847,-1.2634836435317993
4.919681072235107,-0.2019421011209488,-1.232316017150879
4.923481464385986,-0.20179176330566406,-1.2012112140655518
4.927393913269043,-0.20165403187274933,-1.1701793670654297
4.93194580078125,-0.2015504091978073,-1.1393376588821411
4.937371253967285,-0.20149031281471252,-1.108723759651184
4.942812442779541,-0.20143860578536987,-1.0781309604644775
4.948239326477051,-0.20139402151107788,-1.0475503206253052
4.953662872314453,-0.20135699212551117,-1.0169817209243774
4.959097385406494,-0.2013280689716339,-0.9864257574081421
4.964497089385986,-0.20130538940429688,-0.955871045589447
4.969933986663818,-0.20129184424877167,-0.9253292083740234
4.975335121154785,-0.20128442347049713,-0.8947838544845581
4.980772495269775,-0.20128607749938965,-0.8642460107803345
4.986176490783691,-0.2012939453125,-0.8337008953094482
4.9916157722473145,-0.20131079852581024,-0.8031578063964844
4.997020244598389,-0.20133376121520996,-0.7726028561592102
5.002435684204102,-0.20136471092700958,-0.7420412302017212
5.008586883544922,-0.20143277943134308,-0.7115733623504639
5.014915466308594,-0.20151542127132416,-0.6811071634292603
5.021389007568359,-0.20161134004592896,-0.650632917881012
5.027895450592041,-0.20171599090099335,-0.6201317310333252
5.035609722137451,-0.20187650620937347,-0.5897383689880371
5.044118404388428,-0.20207621157169342,-0.5593822002410889
5.052682399749756,-0.20228545367717743,-0.5289686918258667
5.061305999755859,-0.20250444114208221,-0.4984951317310333
5.070088863372803,-0.20273715257644653,-0.46796730160713196
5.0789408683776855,-0.20297996699810028,-0.43737223744392395
5.088998317718506,-0.2032783329486847,-0.40679728984832764
5.09917688369751,-0.20358888804912567,-0.3761378824710846
5.109397888183594,-0.2039085179567337,-0.34538424015045166
5.119658946990967,-0.20423714816570282,-0.31453317403793335
5.129927635192871,-0.20457352697849274,-0.28357991576194763
5.1402668952941895,-0.2049202024936676,-0.25252512097358704
5.150608539581299,-0.20527444779872894,-0.22136230766773224
5.161028861999512,-0.20563940703868866,-0.19009195268154144
5.171452045440674,-0.20601202547550201,-0.15870796144008636
5.181915283203125,-0.20639386773109436,-0.1272088885307312
5.192419528961182,-0.20678497850894928,-0.09559165686368942
5.202964782714844,-0.20718544721603394,-0.0638531893491745
5.213552474975586,-0.2075953334569931,-0.03199036046862602
5.224337577819824,-0.2080208659172058,-3.198878423518785e-16
5.236148357391357,-0.20849505066871643,0.03212900459766388
5.248085021972656,-0.2089821696281433,0.06440692394971848
5.260231971740723,-0.20948557555675507,0.09684007614850998
5.27247953414917,-0.21000100672245026,0.12943211197853088
5.284736156463623,-0.21052485704421997,0.16218456625938416
5.297726631164551,-0.21108606457710266,0.19512681663036346
5.311416149139404,-0.21168334782123566,0.22827348113059998
5.325232028961182,-0.21229396760463715,0.2616118788719177
5.340219974517822,-0.2129596620798111,0.295204758644104
5.355588436126709,-0.21364901959896088,0.32902783155441284
5.3711066246032715,-0.21435292065143585,0.3630751669406891
5.386698246002197,-0.21506841480731964,0.39734673500061035
5.402662754058838,-0.21580754220485687,0.43187054991722107
5.419373035430908,-0.21658533811569214,0.46668848395347595
5.436999797821045,-0.21740877628326416,0.5018330216407776
5.454731464385986,-0.2182455211877823,0.5372441411018372
5.472586154937744,-0.21909642219543457,0.5729287266731262
5.49062442779541,-0.21996402740478516,0.6088988184928894
5.508703708648682,-0.22084273397922516,0.6451441049575806
5.527047157287598,-0.22174164652824402,0.6816962361335754
5.545502662658691,-0.22265475988388062,0.718543529510498
5.564089298248291,-0.22358299791812897,0.7556939125061035
5.582798480987549,-0.22452612221240997,0.7931519746780396
5.601934432983398,-0.22549653053283691,0.8309684991836548
5.622093200683594,-0.2265184372663498,0.8692471385002136
5.6435747146606445,-0.22760413587093353,0.9080588221549988
5.665535926818848,-0.22871994972229004,0.9472914338111877
5.687792778015137,-0.2298586219549179,0.9869256615638733
5.711791038513184,-0.2310788333415985,1.027230978012085
5.738615036010742,-0.23242488503456116,1.068446397781372
5.765933036804199,-0.23380281031131744,1.1101806163787842
5.794724464416504,-0.23525263369083405,1.1526423692703247
5.824812889099121,-0.23676759004592896,1.195827841758728
5.855445861816406,-0.23831745982170105,1.2396074533462524
5.886390686035156,-0.23989304900169373,1.2839452028274536
5.917659759521484,-0.24149513244628906,1.3288549184799194
5.949501037597656,-0.24313414096832275,1.374405026435852
5.981673717498779,-0.24480052292346954,1.420554518699646
6.01582145690918,-0.2465619444847107,1.467715859413147
6.053310871124268,-0.24847511947155,1.5162755250930786
6.092156410217285,-0.2504592835903168,1.565793752670288
6.131584167480469,-0.25248318910598755,1.6160995960235596
6.173523902893066,-0.25462672114372253,1.667731523513794
6.2248663902282715,-0.257175475358963,1.722652554512024
6.278633117675781,-0.2598429024219513,1.7790783643722534
6.333720684051514,-0.26258420944213867,1.836745023727417
6.389769077301025,-0.26538509130477905,1.8955793380737305
6.448644638061523,-0.2683238387107849,1.9561749696731567
6.518664836883545,-0.27174824476242065,2.0211760997772217
6.596439361572266,-0.27551984786987305,2.0897421836853027
6.6769938468933105,-0.27943286299705505,2.160431385040283
6.779659748077393,-0.28429925441741943,2.239697217941284
6.8957200050354,-0.28975892066955566,2.3250632286071777
7.028692722320557,-0.2959643304347992,2.418029308319092
7.238205909729004,-0.30543699860572815,2.539881467819214
6.457289695739746,-0.48530080914497375,10.336959838867188
6.372097969055176,-0.48365798592567444,10.34126091003418
6.287481784820557,-0.48204463720321655,10.345540046691895
6.20343017578125,-0.48046043515205383,10.349798202514648
6.119923114776611,-0.4789043664932251,10.354023933410645
6.0369553565979,-0.4773765206336975,10.35822868347168
5.954508304595947,-0.4758759140968323,10.362399101257324
5.873181343078613,-0.47445154190063477,10.367615699768066
5.808133602142334,-0.47434350848197937,10.40108871459961
5.763497352600098,-0.4759366512298584,10.471583366394043
5.7184672355651855,-0.4775509834289551,10.542387962341309
5.6732048988342285,-0.4792008101940155,10.61382007598877
5.627632141113281,-0.4808807075023651,10.685759544372559
5.581724643707275,-0.4825895428657532,10.758183479309082
5.535486221313477,-0.4843287467956543,10.831123352050781
5.488915920257568,-0.4860992729663849,10.904603004455566
5.441855430603027,-0.4878880977630615,10.978328704833984
5.372572422027588,-0.4877229928970337,11.007786750793457
5.185881614685059,-0.4767780900001526,10.79278564453125
4.990052700042725,-0.46471714973449707,10.550580024719238
4.849485397338867,-0.4575710892677307,10.418293952941895
4.773683547973633,-0.45644423365592957,10.422122955322266
4.6982502937316895,-0.4553399384021759,10.425932884216309
4.623182773590088,-0.45425841212272644,10.429732322692871
4.548464298248291,-0.45319870114326477,10.433506965637207
4.474094390869141,-0.4521612524986267,10.437272071838379
4.400055885314941,-0.4511449337005615,10.441006660461426
4.326352119445801,-0.45015063881874084,10.444738388061523
4.2529683113098145,-0.44917741417884827,10.44844913482666
4.198647975921631,-0.4502358138561249,10.499029159545898
-2.6226072311401367,-0.367170512676239,8.840492248535156
-2.6530420780181885,-0.3639114201068878,8.7459077835083
-2.682842969894409,-0.3607097268104553,8.652663230895996
-2.712130069732666,-0.3575778901576996,8.561056137084961
-2.740922451019287,-0.35451430082321167,8.471049308776855
-2.7692580223083496,-0.3515198230743408,8.38266372680664
-2.7970962524414062,-0.3485855758190155,8.295684814453125
-2.8245911598205566,-0.3457271158695221,8.210481643676758
-2.851555824279785,-0.34291785955429077,8.126421928405762
-2.878107786178589,-0.3401690423488617,8.04377269744873
-2.9042599201202393,-0.3374790549278259,7.962493896484375
-2.9299540519714355,-0.33483821153640747,7.882356643676758
-2.9552180767059326,-0.33224719762802124,7.803376197814941
-2.980022668838501,-0.3297003209590912,7.725418567657471
-3.0044920444488525,-0.32720887660980225,7.648748397827148
-3.0286309719085693,-0.3247707784175873,7.573315143585205
-3.0523509979248047,-0.322374165058136,7.498841285705566
-3.0756638050079346,-0.32001832127571106,7.425309181213379
-3.098682403564453,-0.3177129626274109,7.3529438972473145
-3.1214020252227783,-0.3154553771018982,7.281679630279541
-3.1439099311828613,-0.3132520914077759,7.211666584014893
-3.16605806350708,-0.3110862374305725,7.142512321472168
-3.1878604888916016,-0.30895760655403137,7.074212074279785
-3.20943021774292,-0.3068753778934479,7.006974220275879
-3.2306602001190186,-0.3048275411128998,6.940523147583008
-3.251671314239502,-0.3028239607810974,6.875081539154053
-3.282773017883301,-0.301810622215271,6.832061767578125
-3.3324124813079834,-0.3025169372558594,6.827731609344482
-3.3857815265655518,-0.3035513460636139,6.8304314613342285
-3.4395179748535156,-0.30460426211357117,6.83314847946167
-3.49363112449646,-0.305676132440567,6.835885524749756
-3.5481274127960205,-0.3067670464515686,6.838640213012695
-3.603015899658203,-0.30787739157676697,6.841413974761963
-3.6583075523376465,-0.3090077042579651,6.844212055206299
-3.7140045166015625,-0.3101576864719391,6.8470234870910645
-3.7701244354248047,-0.3113284111022949,6.8498640060424805
-3.8266689777374268,-0.3125195801258087,6.852721214294434
-3.8836522102355957,-0.31373196840286255,6.855604648590088
-3.941080093383789,-0.31496554613113403,6.858508586883545
-4.247023105621338,-0.33583635091781616,7.287056922912598
-4.49868631362915,-0.3520371913909912,7.611125946044922
-4.519907474517822,-0.3500702977180481,7.541009902954102
-4.5409674644470215,-0.348143994808197,7.471792697906494
-4.561708927154541,-0.3462449610233307,7.40318489074707
-4.582275867462158,-0.34438320994377136,7.335400104522705
-4.602524757385254,-0.3425467908382416,7.2681803703308105
-4.622636318206787,-0.3407483398914337,7.201792240142822
-4.642491817474365,-0.3389779329299927,7.136022567749023
-4.662006378173828,-0.33722856640815735,7.070723533630371
-4.681453227996826,-0.3355191946029663,7.006289958953857
-4.700537204742432,-0.3338277041912079,6.942256927490234
-4.734640598297119,-0.33323612809181213,6.901033401489258
-4.797719955444336,-0.33468884229660034,6.9018096923828125
-4.863129138946533,-0.33628973364830017,6.9051127433776855
-4.929172515869141,-0.3379189968109131,6.908452033996582
-4.995858669281006,-0.3395768105983734,6.911820888519287
-5.063205718994141,-0.34126392006874084,6.915223121643066
-5.131232738494873,-0.34298115968704224,6.918666839599609
-5.199943542480469,-0.34472838044166565,6.922135353088379
-5.269362926483154,-0.3465067744255066,6.925643444061279
-5.339502811431885,-0.34831660985946655,6.929184913635254
-5.41038179397583,-0.35015869140625,6.932763576507568
-9.99412727355957,-0.445512592792511,5.030620574951172
-9.997913360595703,-0.44431746006011963,4.955873012542725
-10.001676559448242,-0.443145215511322,4.8815202713012695
-10.005430221557617,-0.44199618697166443,4.80756139755249
-10.009151458740234,-0.4408690929412842,4.733976364135742
-10.012859344482422,-0.43976444005966187,4.660764694213867
-10.016551971435547,-0.4386819303035736,4.587917804718018
-10.020220756530762,-0.43762096762657166,4.5154242515563965
-10.023879051208496,-0.4365817904472351,4.443280220031738
-10.02751350402832,-0.4355636239051819,4.371472358703613
-10.03113079071045,-0.4345664978027344,4.2999958992004395
-10.034730911254883,-0.4335901737213135,4.228842735290527
-10.038324356079102,-0.4326348900794983,4.158010005950928
-10.041895866394043,-0.4316997528076172,4.0874834060668945
-10.045446395874023,-0.43078455328941345,4.017256259918213
-10.048985481262207,-0.42988958954811096,3.9473252296447754
-10.05251407623291,-0.4290145933628082,3.877682685852051
-10.056024551391602,-0.42815905809402466,3.808318853378296
-10.059532165527344,-0.42732346057891846,3.7392330169677734
-10.063006401062012,-0.4265063405036926,3.6704063415527344
-10.066483497619629,-0.42570894956588745,3.6018455028533936
-10.069941520690918,-0.42493027448654175,3.5335357189178467
-10.073386192321777,-0.4241703748703003,3.46547269821167
-10.076821327209473,-0.4234291613101959,3.397650718688965
-10.080245018005371,-0.4227064549922943,3.3300631046295166
-10.083659172058105,-0.4220021367073059,3.2627038955688477
-10.087061882019043,-0.4213160276412964,3.195566177368164
-10.09044361114502,-0.4206475615501404,3.128641128540039
-10.093827247619629,-0.4199974834918976,3.061929225921631
-10.097189903259277,-0.41936469078063965,2.9954171180725098
-10.100550651550293,-0.41874992847442627,2.929105520248413
-10.103891372680664,-0.4181522727012634,2.8629822731018066
-10.107230186462402,-0.4175723195075989,2.7970473766326904
-10.110563278198242,-0.41700977087020874,2.7312934398651123
-10.113883972167969,-0.4164642095565796,2.665712833404541
-10.117194175720215,-0.4159356951713562,2.6003010272979736
-10.120494842529297,-0.41542407870292664,2.5350520610809326
-10.123795509338379,-0.41492965817451477,2.4699628353118896
-10.1270751953125,-0.4144514203071594,2.4050228595733643
-10.130353927612305,-0.4139901399612427,2.340231418609619
-10.133635520935059,-0.4135458767414093,2.2755839824676514
-10.136896133422852,-0.41311749815940857,2.2110695838928223
-10.331016540527344,-0.4204738140106201,2.1870930194854736
-11.12180233001709,-0.4520801901817322,2.283294200897217
-11.580794334411621,-0.47015392780303955,2.303563117980957
-11.776954650878906,-0.47754374146461487,2.2675509452819824
-12.248136520385742,-0.4960729777812958,2.2804243564605713
-4.937716484069824,-0.21505816280841827,-2.188739061355591
-4.864910125732422,-0.21246902644634247,-2.1922802925109863
-4.793961048126221,-0.20995491743087769,-2.195795774459839
-4.7248663902282715,-0.20751596987247467,-2.1993210315704346
-4.657007694244385,-0.2051253318786621,-2.2026004791259766
-4.590725898742676,-0.20279820263385773,-2.2058217525482178
-4.525863170623779,-0.2005278319120407,-2.2089390754699707
-4.462801456451416,-0.19833144545555115,-2.2121694087982178
-4.40091609954834,-0.19618156552314758,-2.2152349948883057
-4.3600616455078125,-0.19496621191501617,-2.228306293487549
-4.355794906616211,-0.19539183378219604,-2.2599399089813232
-4.357569217681885,-0.1960994005203247,-2.2949044704437256
-4.359349727630615,-0.1968192309141159,-2.330120801925659
-4.361147403717041,-0.19755202531814575,-2.365600347518921
-4.362953186035156,-0.19829754531383514,-2.401343584060669
-4.364780426025391,-0.19905659556388855,-2.4373631477355957
-4.36661434173584,-0.19982868432998657,-2.473656415939331
-4.368466854095459,-0.2006145566701889,-2.5102365016937256
-4.370335578918457,-0.2014143168926239,-2.547107458114624
-4.372218132019043,-0.20222806930541992,-2.5842742919921875
-4.374111652374268,-0.20305590331554413,-2.621741771697998
-4.376028537750244,-0.2038985937833786,-2.6595230102539062
-4.377957820892334,-0.20475590229034424,-2.6976184844970703
-4.379899978637695,-0.20562806725502014,-2.736035108566284
-4.381864070892334,-0.20651571452617645,-2.774784803390503
-4.383841514587402,-0.20741873979568481,-2.8138697147369385
-4.38584041595459,-0.20833778381347656,-2.853302240371704
-4.387853622436523,-0.20927272737026215,-2.893084764480591
-4.3898844718933105,-0.21022401750087738,-2.9332268238067627
-4.391936779022217,-0.21119216084480286,-2.9737396240234375
-4.394008636474609,-0.21217727661132812,-3.0146286487579346
-4.3960981369018555,-0.2131795883178711,-3.055901050567627
-4.398204803466797,-0.21419942378997803,-3.0975654125213623
-4.400335311889648,-0.2152373492717743,-3.139634132385254
-4.402485370635986,-0.21629349887371063,-3.1821129322052
-4.404657363891602,-0.21736834943294525,-3.225013256072998
-4.406852722167969,-0.2184622436761856,-3.2683446407318115
-4.409066677093506,-0.21957536041736603,-3.3121132850646973
-4.411304473876953,-0.22070826590061188,-3.356332778930664
-4.4135661125183105,-0.2218613624572754,-3.4010133743286133
-4.415852069854736,-0.2230350226163864,-3.446164846420288
-4.418161392211914,-0.2242296040058136,-3.49179744720459
-4.420495986938477,-0.22544559836387634,-3.537923812866211
-4.422858238220215,-0.22668354213237762,-3.5845565795898438
-4.425246238708496,-0.2279437631368637,-3.6317057609558105
-4.427658557891846,-0.22922663390636444,-3.679381847381592
-4.430099010467529,-0.23053279519081116,-3.72760009765625
-4.432570934295654,-0.2318628579378128,-3.7763755321502686
-4.435068130493164,-0.2332170307636261,-3.825716018676758
-4.437593460083008,-0.2345959097146988,-3.8756368160247803
-4.440150737762451,-0.23600023984909058,-3.9261553287506104
-4.442741870880127,-0.2374306321144104,-3.9772865772247314
-4.445359230041504,-0.2388872355222702,-4.029038429260254
-4.4480109214782715,-0.24037101864814758,-4.081433296203613
-4.450697898864746,-0.24188263714313507,-4.134487152099609
-4.45341682434082,-0.2434224784374237,-4.188211917877197
-4.456171989440918,-0.24499139189720154,-4.24262809753418
-4.458961009979248,-0.24658992886543274,-4.297751426696777
-4.461789608001709,-0.24821899831295013,-4.353602886199951
-4.464778423309326,-0.24988608062267303,-4.41032075881958
-4.467830657958984,-0.2515864968299866,-4.467830657958984
-4.470927715301514,-0.25332003831863403,-4.526134014129639
-4.474053382873535,-0.25508642196655273,-4.585233211517334
-4.477186679840088,-0.256885290145874,-4.645126819610596
-4.480304718017578,-0.25871604681015015,-4.705811023712158
-4.483504772186279,-0.26058515906333923,-4.76740837097168
-4.4868388175964355,-0.2624965012073517,-4.829998016357422
-4.490124702453613,-0.2644404172897339,-4.893409252166748
-4.493459224700928,-0.26642337441444397,-4.957767963409424
-4.496820449829102,-0.26844507455825806,-5.023075580596924
-4.675668239593506,-0.2810533046722412,-5.287786483764648
6.116965293884277,-0.3707211911678314,-4.536650657653809
5.909377574920654,-0.3565245270729065,-4.326743125915527
5.765851974487305,-0.34631600975990295,-4.167553901672363
5.669507026672363,-0.33903196454048157,-4.045186519622803
5.613955497741699,-0.3342529833316803,-3.9537932872772217
5.560066223144531,-0.329626202583313,-3.8650214672088623
5.506582736968994,-0.32507503032684326,-3.777940034866333
5.453544616699219,-0.32060039043426514,-3.6925442218780518
5.401710510253906,-0.31624531745910645,-3.6093077659606934
5.351395606994629,-0.3120262026786804,-3.528385877609253
5.3023223876953125,-0.30792492628097534,-3.4495391845703125
5.256066799163818,-0.30403077602386475,-3.373727560043335
5.226587772369385,-0.3011452257633209,-3.3097002506256104
5.202497482299805,-0.2986025810241699,-3.2498950958251953
5.179114818572998,-0.2961310148239136,-3.191276788711548
5.156200408935547,-0.29371586441993713,-3.1336710453033447
5.134581565856934,-0.291403204202652,-3.077549934387207
5.116017818450928,-0.2892911732196808,-3.0239098072052
5.098059177398682,-0.28723934292793274,-2.9712374210357666
5.080337047576904,-0.2852261960506439,-2.9192957878112793
5.062833309173584,-0.2832501232624054,-2.8680596351623535
5.04661226272583,-0.2813698649406433,-2.8181087970733643
5.033115863800049,-0.27966442704200745,-2.7701971530914307
5.02029275894165,-0.2780182361602783,-2.7231380939483643
5.007729530334473,-0.27640774846076965,-2.676687240600586
4.995304584503174,-0.2748257517814636,-2.6307663917541504
4.9830498695373535,-0.27327361702919006,-2.5853817462921143
4.971841335296631,-0.2717987895011902,-2.5409698486328125
4.964914798736572,-0.27057671546936035,-2.4991281032562256
4.958188056945801,-0.26938319206237793,-2.4577276706695557
4.951817989349365,-0.26822635531425476,-2.416835069656372
4.945598125457764,-0.26709458231925964,-2.3763363361358643
4.939457893371582,-0.2659837603569031,-2.3361895084381104
4.933351516723633,-0.26489120721817017,-2.296365976333618
4.927299499511719,-0.2638177275657654,-2.256869077682495
4.9213032722473145,-0.2627631425857544,-2.2176926136016846
4.915389537811279,-0.2617286443710327,-2.178842306137085
4.911740303039551,-0.2608298063278198,-2.1412622928619385
4.908888816833496,-0.25998783111572266,-2.10426926612854
4.90653657913208,-0.25918641686439514,-2.067715883255005
4.904196262359619,-0.25839948654174805,-2.0313847064971924
4.9018635749816895,-0.25762665271759033,-1.9952694177627563
4.899541854858398,-0.256867915391922,-1.9593669176101685
4.897247791290283,-0.25612398982048035,-1.9236795902252197
4.894954204559326,-0.25539329648017883,-1.8881921768188477
4.89276647567749,-0.25468116998672485,-1.852940559387207
4.891122341156006,-0.2540101110935211,-1.818081259727478
4.890633583068848,-0.25341150164604187,-1.783821940422058
4.891207218170166,-0.2528800666332245,-1.7501020431518555
4.891969680786133,-0.252370148897171,-1.7165887355804443
4.892736911773682,-0.25187215209007263,-1.6832120418548584
4.893492221832275,-0.2513851523399353,-1.6499625444412231
4.8942461013793945,-0.2509095072746277,-1.6168406009674072
4.895005702972412,-0.25044548511505127,-1.5838451385498047
4.895752906799316,-0.24999210238456726,-1.5509672164916992
4.896498680114746,-0.24954980611801147,-1.5182075500488281
4.89730167388916,-0.24912145733833313,-1.4855802059173584
4.898187637329102,-0.24870829284191132,-1.4530889987945557
4.8996171951293945,-0.24833351373672485,-1.4208625555038452
4.902331829071045,-0.24803443253040314,-1.3890974521636963
4.906047821044922,-0.24779628217220306,-1.3576862812042236
4.909820556640625,-0.24757111072540283,-1.3263514041900635
4.913585186004639,-0.2473555952310562,-1.2950719594955444
4.917341709136963,-0.24714964628219604,-1.2638453245162964
4.9210896492004395,-0.24695323407649994,-1.2326687574386597
4.924841403961182,-0.24676688015460968,-1.2015429735183716
4.928578853607178,-0.24658963084220886,-1.170460820198059
4.932616233825684,-0.2464371770620346,-1.1394926309585571
4.937183856964111,-0.24632085859775543,-1.1086816787719727
4.94225549697876,-0.24623924493789673,-1.0780094861984253
4.947686195373535,-0.24618497490882874,-1.0474332571029663
4.953102111816406,-0.24613936245441437,-1.016866683959961
4.958534240722656,-0.2461039125919342,-0.9863137602806091
4.963939189910889,-0.24607646465301514,-0.955763578414917
4.96937370300293,-0.2460598200559616,-0.9252248406410217
4.974773406982422,-0.24605073034763336,-0.8946828842163086
4.9802093505859375,-0.24605269730091095,-0.8641483187675476
4.9856181144714355,-0.24606257677078247,-0.83360755443573
4.991049766540527,-0.2460828274488449,-0.8030667304992676
4.9968037605285645,-0.2461281418800354,-0.7725693583488464
5.002760410308838,-0.24619264900684357,-0.7420894503593445
5.009140968322754,-0.24628709256649017,-0.7116520404815674
5.015610694885254,-0.2463950663805008,-0.6812016367912292
5.022100925445557,-0.24651309847831726,-0.6507251262664795
5.028607368469238,-0.24664102494716644,-0.6202195882797241
5.03666353225708,-0.2468540072441101,-0.5898618102073669
5.045207500457764,-0.247099831700325,-0.5595029592514038
5.053769588470459,-0.24735552072525024,-0.5290825366973877
5.062397003173828,-0.24762336909770966,-0.49860256910324097
5.071019649505615,-0.24790000915527344,-0.4680532217025757
5.079634189605713,-0.24818524718284607,-0.4374319314956665
5.088973522186279,-0.24851493537425995,-0.40679532289505005
5.0984601974487305,-0.24886082112789154,-0.3760850131511688
5.108662128448486,-0.24925066530704498,-0.3453345000743866
5.11892557144165,-0.24965256452560425,-0.31448811292648315
5.129182815551758,-0.2500632405281067,-0.28353872895240784
5.139519691467285,-0.25048696994781494,-0.2524884045124054
5.1498565673828125,-0.2509198486804962,-0.22132998704910278
5.160273551940918,-0.2513658404350281,-0.19006413221359253
5.170692443847656,-0.2518211901187897,-0.158684641122818
5.181151390075684,-0.2522878050804138,-0.12719012796878815
5.191650867462158,-0.2527657449245453,-0.09557750821113586
5.202199459075928,-0.2532554864883423,-0.06384379416704178
5.213454723358154,-0.2537890672683716,-0.03198975697159767
5.224867343902588,-0.25433987379074097,-3.199202943016702e-16
5.236903190612793,-0.2549305558204651,0.032133638858795166
5.248998165130615,-0.25553375482559204,0.06441813707351685
5.261147975921631,-0.2561493515968323,0.09685694426298141
5.273398399353027,-0.25677961111068726,0.12945467233657837
5.28565788269043,-0.25742021203041077,0.16221284866333008
5.298394680023193,-0.2580939829349518,0.1951514333486557
5.3120856285095215,-0.2588242292404175,0.2283022552728653
5.326020240783691,-0.2595765292644501,0.26165059208869934
5.341197490692139,-0.26039960980415344,0.2952587902545929
5.356570720672607,-0.2612426280975342,0.3290881812572479
5.372091293334961,-0.2621033191680908,0.3631417155265808
5.3876423835754395,-0.2629760801792145,0.3974163830280304
5.403351306915283,-0.26386725902557373,0.43192559480667114
5.419519901275635,-0.26479166746139526,0.4667011499404907
5.436295509338379,-0.265756756067276,0.5017680525779724
5.453819751739502,-0.26676952838897705,0.5371543765068054
5.471657752990723,-0.2678089737892151,0.5728315711021423
5.489688873291016,-0.2688692510128021,0.6087950468063354
5.5077595710754395,-0.26994308829307556,0.645033597946167
5.526095390319824,-0.271041601896286,0.6815788149833679
5.54454231262207,-0.2721574604511261,0.718419075012207
5.5631208419799805,-0.27329182624816895,0.7555623650550842
5.582025051116943,-0.27445441484451294,0.7930421233177185
5.602311134338379,-0.27569735050201416,0.8310243487358093
5.623283863067627,-0.2769867479801178,0.8694311380386353
5.645040035247803,-0.27832767367362976,0.9082946181297302
5.667040824890137,-0.2796938419342041,0.9475430250167847
5.689245223999023,-0.2810833752155304,0.9871776700019836
5.713037490844727,-0.28256502747535706,1.02745521068573
5.739655494689941,-0.284200519323349,1.068640112876892
5.766737937927246,-0.2858734726905823,1.1103355884552002
5.794675827026367,-0.2876036465167999,1.152632713317871
5.823950290679932,-0.28941527009010315,1.1956508159637451
5.85444450378418,-0.2913030683994293,1.2393953800201416
5.885375499725342,-0.2932285666465759,1.2837238311767578
5.916630268096924,-0.2951864004135132,1.3286237716674805
5.94844913482666,-0.297188937664032,1.374161958694458
5.981856346130371,-0.2992878556251526,1.4205979108810425
6.01792573928833,-0.30153757333755493,1.4682291746139526
6.056045055389404,-0.3039082884788513,1.5169603824615479
6.094961643218994,-0.30633780360221863,1.5665148496627808
6.134401321411133,-0.3088129162788391,1.6168421506881714
6.175358295440674,-0.3113841712474823,1.6682270765304565
6.223058700561523,-0.3143163025379181,1.7221522331237793
6.276306629180908,-0.3175509572029114,1.7784192562103271
6.331348419189453,-0.3208997845649719,1.8360570669174194
6.387349605560303,-0.32432135939598083,1.8948615789413452
6.450777053833008,-0.32814541459083557,1.9568217992782593
6.524760723114014,-0.3325340747833252,2.0230660438537598
6.602866172790527,-0.3371625244617462,2.09177827835083
6.6831183433532715,-0.34193155169487,2.1624131202697754
6.775163650512695,-0.3473370373249054,2.2382118701934814
6.891274929046631,-0.3540138602256775,2.3235645294189453
7.028382301330566,-0.36181262135505676,2.417922258377075
7.237431049346924,-0.37336933612823486,2.539609670639038
-2.6227729320526123,-0.4489094614982605,8.84105110168457
-2.653184175491333,-0.44492053985595703,8.746376037597656
-2.682964324951172,-0.4410024583339691,8.653054237365723
-2.712247848510742,-0.43717268109321594,8.56142807006836
-2.7410409450531006,-0.4334270656108856,8.471415519714355
-2.769376277923584,-0.42976585030555725,8.383021354675293
-2.7972171306610107,-0.4261786639690399,8.296043395996094
-2.824713706970215,-0.422683984041214,8.210837364196777
-2.851686716079712,-0.4192504286766052,8.126794815063477
-2.878261089324951,-0.4158928096294403,8.044200897216797
-2.904444932937622,-0.4126083254814148,7.963001251220703
-2.9301514625549316,-0.40938112139701843,7.882887840270996
-2.955418586730957,-0.4062134921550751,7.803905963897705
-2.980239152908325,-0.40310150384902954,7.725979328155518
-3.004728078842163,-0.40005776286125183,7.649349212646484
-3.0288777351379395,-0.3970780074596405,7.573932647705078
-3.052600622177124,-0.39414793252944946,7.499454498291016
-3.075915813446045,-0.3912676274776459,7.425917625427246
-3.0989365577697754,-0.3884490728378296,7.353547096252441
-3.1216683387756348,-0.3856900632381439,7.28230094909668
-3.144178628921509,-0.3829963207244873,7.212282657623291
-3.1663291454315186,-0.3803482949733734,7.143124103546143
-3.1881308555603027,-0.3777454197406769,7.0748114585876465
-3.2096939086914062,-0.3751986026763916,7.007550239562988
-3.2309165000915527,-0.372693806886673,6.941073894500732
-3.251911163330078,-0.37024205923080444,6.875588417053223
-3.282893180847168,-0.3689894378185272,6.832311630249023
-3.3324830532073975,-0.36984723806381226,6.827876091003418
-3.385852098464966,-0.37111175060272217,6.830574035644531
-3.4395875930786133,-0.3723987936973572,6.833286762237549
-3.4937007427215576,-0.373709112405777,6.836021900177002
-3.5481982231140137,-0.3750428259372711,6.838776588439941
-3.603085994720459,-0.3764001131057739,6.841546535491943
-3.658378839492798,-0.37778201699256897,6.844345569610596
-3.7140755653381348,-0.37918779253959656,6.847154140472412
-3.7701942920684814,-0.3806188404560089,6.8499908447265625
-3.826738119125366,-0.3820749819278717,6.852845668792725
-3.8837223052978516,-0.38355717062950134,6.855728626251221
-3.9411492347717285,-0.38506510853767395,6.858628749847412
-4.247229099273682,-0.4105936586856842,7.287409782409668
-4.4990129470825195,-0.4304111897945404,7.611678600311279
-4.520236492156982,-0.42800650000572205,7.541558742523193
-4.541303634643555,-0.4256518483161926,7.472345352172852
-4.562050819396973,-0.4233304560184479,7.403739929199219
-4.582614421844482,-0.42105376720428467,7.335941791534424
-4.60280704498291,-0.41880330443382263,7.268626689910889
-4.622894287109375,-0.41660213470458984,7.2021942138671875
-4.642752170562744,-0.4144377112388611,7.136423110961914
-4.662271976470947,-0.4122992753982544,7.0711259841918945
-4.68174409866333,-0.4102115333080292,7.006725311279297
-4.700847148895264,-0.408145010471344,6.942714691162109
-4.734823703765869,-0.4074106216430664,6.901299953460693
-4.797778606414795,-0.40917590260505676,6.901893615722656
-4.863187789916992,-0.4111330211162567,6.905196189880371
-4.92922830581665,-0.41312459111213684,6.9085307121276855
-4.995914936065674,-0.41515129804611206,6.911898136138916
-5.06326150894165,-0.4172137677669525,6.915298938751221
-5.13128662109375,-0.4193130135536194,6.918739318847656
-5.199995517730713,-0.42144885659217834,6.922204971313477
-5.269412517547607,-0.4236227571964264,6.925708770751953
-5.339552879333496,-0.42583540081977844,6.9292497634887695
-5.41042947769165,-0.4280872344970703,6.932825088500977
-9.349644660949707,-0.49649736285209656,-4.07595682144165
-4.938991069793701,-0.26298534870147705,-2.1893041133880615
-4.866151809692383,-0.259818434715271,-2.1928398609161377
-4.795156002044678,-0.2567425072193146,-2.196342945098877
-4.726030349731445,-0.25375932455062866,-2.1998627185821533
-4.658140182495117,-0.2508351504802704,-2.2031362056732178
-4.591843128204346,-0.2479895055294037,-2.2063586711883545
-4.526950359344482,-0.24521243572235107,-2.2094695568084717
-4.4638519287109375,-0.24252542853355408,-2.2126898765563965
-4.4019551277160645,-0.23989666998386383,-2.2157580852508545
-4.360660552978516,-0.23838697373867035,-2.2286124229431152
-4.356208801269531,-0.23889726400375366,-2.2601547241210938
-4.357983112335205,-0.23976236581802368,-2.2951226234436035
-4.359764575958252,-0.2406425178050995,-2.3303425312042236
-4.3615617752075195,-0.24153845012187958,-2.3658251762390137
-4.363367557525635,-0.24244993925094604,-2.40157151222229
-4.365195274353027,-0.24337801337242126,-2.4375946521759033
-4.367029666900635,-0.2443220317363739,-2.4738919734954834
-4.3688812255859375,-0.24528281390666962,-2.510474443435669
-4.37075138092041,-0.24626073241233826,-2.5473499298095703
-4.37263298034668,-0.2472556084394455,-2.584519624710083
-4.374526500701904,-0.2482677549123764,-2.621990442276001
-4.376444339752197,-0.2492981255054474,-2.659775495529175
-4.378372669219971,-0.25034624338150024,-2.697874069213867
-4.380315780639648,-0.25141263008117676,-2.736294746398926
-4.382279396057129,-0.25249791145324707,-2.775048017501831
-4.384256839752197,-0.253601998090744,-2.814136505126953
-4.386256694793701,-0.2547256648540497,-2.8535728454589844
-4.388269901275635,-0.2558687925338745,-2.8933591842651367
-4.390300273895264,-0.2570318877696991,-2.933505058288574
-4.3923540115356445,-0.25821560621261597,-2.9740219116210938
-4.394424915313721,-0.2594200372695923,-3.014914035797119
-4.396514415740967,-0.2606455385684967,-3.0561904907226562
-4.398622035980225,-0.2618924379348755,-3.0978591442108154
-4.400752544403076,-0.26316148042678833,-3.1399316787719727
-4.402901649475098,-0.26445272564888,-3.1824140548706055
-4.405074119567871,-0.2657668888568878,-3.225318193435669
-4.407270431518555,-0.2671044170856476,-3.2686543464660645
-4.409484386444092,-0.2684653699398041,-3.312427282333374
-4.411721706390381,-0.269850492477417,-3.3566503524780273
-4.413985252380371,-0.27126041054725647,-3.4013359546661377
-4.416270732879639,-0.2726953327655792,-3.4464914798736572
-4.418580055236816,-0.2741559147834778,-3.492128610610962
-4.420914649963379,-0.27564263343811035,-3.5382590293884277
-4.423277378082275,-0.2771562337875366,-3.5848960876464844
-4.425664901733398,-0.27869701385498047,-3.632049322128296
-4.428077220916748,-0.2802655100822449,-3.679729700088501
-4.430518627166748,-0.2818625271320343,-3.7279529571533203
-4.432990074157715,-0.2834887206554413,-3.7767326831817627
-4.435488224029541,-0.2851444184780121,-3.826078414916992
-4.438013553619385,-0.286830335855484,-3.876004219055176
-4.44057035446167,-0.2885473072528839,-3.9265265464782715
-4.443162441253662,-0.2902962267398834,-3.977663278579712
-4.445779323577881,-0.29207709431648254,-4.029419422149658
-4.44843053817749,-0.29389122128486633,-4.081818580627441
-4.451117992401123,-0.29573941230773926,-4.1348772048950195
-4.453836441040039,-0.29762205481529236,-4.188606262207031
-4.456591606140137,-0.29954031109809875,-4.243028163909912
-4.459382057189941,-0.3014947772026062,-4.29815673828125
-4.462209701538086,-0.30348652601242065,-4.354012966156006
-4.465202331542969,-0.305525004863739,-4.410739421844482
-4.468255043029785,-0.3076040744781494,-4.468255043029785
-4.471352577209473,-0.3097235858440399,-4.52656364440918
-4.474478721618652,-0.3118833005428314,-4.585669040679932
-4.4776105880737305,-0.3140825629234314,-4.645566940307617
-4.480720520019531,-0.31632038950920105,-4.706247806549072
-4.483917713165283,-0.3186054229736328,-4.767847537994385
-4.4872517585754395,-0.32094231247901917,-4.830442428588867
-4.490537643432617,-0.3233189880847931,-4.893858909606934
-4.493873596191406,-0.32574358582496643,-4.958225250244141
-4.497236251831055,-0.32821547985076904,-5.023540019989014
-4.600569248199463,-0.33808043599128723,-5.202855587005615
6.126111030578613,-0.4389175474643707,-4.543433666229248
5.913803577423096,-0.4217948317527771,-4.329983711242676
5.762014389038086,-0.4091382920742035,-4.1647796630859375
5.671651840209961,-0.4009512960910797,-4.046716690063477
5.6160197257995605,-0.39529532194137573,-3.955247402191162
5.561296463012695,-0.38976651430130005,-3.8658766746520996
5.507248401641846,-0.3843464255332947,-3.7783968448638916
5.4541449546813965,-0.3790518045425415,-3.69295072555542
5.402289867401123,-0.3739016354084015,-3.609694719314575
5.351942539215088,-0.368911474943161,-3.5287466049194336
5.302851676940918,-0.3640616238117218,-3.449883460998535
5.255954265594482,-0.3594139516353607,-3.373655319213867
5.225614070892334,-0.35594406723976135,-3.3090837001800537
5.201581954956055,-0.3529423773288727,-3.2493228912353516
5.1782026290893555,-0.35002103447914124,-3.1907150745391846
5.155247211456299,-0.3471633195877075,-3.133091688156128
5.133171558380127,-0.3443989157676697,-3.076704740524292
5.113837242126465,-0.3418509066104889,-3.0226211547851562
5.095891952514648,-0.3394266664981842,-2.9699742794036865
5.078181743621826,-0.3370480537414551,-2.9180572032928467
5.060965538024902,-0.33473148941993713,-2.867001533508301
5.045644283294678,-0.3325684070587158,-2.817568302154541
5.03258752822876,-0.33058133721351624,-2.7699062824249268
5.019830226898193,-0.3286396563053131,-2.7228872776031494
5.00726842880249,-0.3267359435558319,-2.676440715789795
4.994838237762451,-0.32486552000045776,-2.630520820617676
4.982588291168213,-0.3230310082435608,-2.5851423740386963
4.970776557922363,-0.3212485611438751,-2.5404257774353027
4.963380336761475,-0.3197738230228424,-2.4983558654785156
4.956567287445068,-0.31835758686065674,-2.4569242000579834
4.950101375579834,-0.3169841468334198,-2.41599702835083
4.943862438201904,-0.315645307302475,-2.375502347946167
4.937735557556152,-0.31433331966400146,-2.3353750705718994
4.931632041931152,-0.31304219365119934,-2.2955658435821533
4.925584316253662,-0.3117736876010895,-2.2560834884643555
4.919694900512695,-0.3105340301990509,-2.216967821121216
4.914117336273193,-0.3093324899673462,-2.1782784461975098
4.9112701416015625,-0.3083204925060272,-2.141057252883911
4.908890724182129,-0.30735474824905396,-2.1042702198028564
4.906529903411865,-0.30640676617622375,-2.0677130222320557
4.9041876792907715,-0.3054763674736023,-2.031381130218506
4.90185546875,-0.3045627474784851,-1.995266079902649
4.899541854858398,-0.30366629362106323,-1.959367036819458
4.897237777709961,-0.3027862310409546,-1.923675775527954
4.8949456214904785,-0.301922470331192,-1.8881888389587402
4.892670631408691,-0.3010752201080322,-1.852904200553894
4.890403747558594,-0.30024370551109314,-1.8178141117095947
4.889245510101318,-0.299495130777359,-1.783315658569336
4.889657497406006,-0.2988571524620056,-1.7495473623275757
4.890425682067871,-0.29825490713119507,-1.7160470485687256
4.891183853149414,-0.29766586422920227,-1.6826777458190918
4.891948223114014,-0.2970908582210541,-1.6494419574737549
4.892701625823975,-0.296528697013855,-1.6163302659988403
4.893460750579834,-0.2959803342819214,-1.5833451747894287
4.89420747756958,-0.2954444885253906,-1.5504777431488037
4.894960403442383,-0.29492223262786865,-1.5177305936813354
4.895798683166504,-0.2944181263446808,-1.4851242303848267
4.896756172180176,-0.293934166431427,-1.4526643753051758
4.898489952087402,-0.29350948333740234,-1.420535683631897
4.901912689208984,-0.2931983768939972,-1.3889786005020142
4.905684471130371,-0.29292023181915283,-1.3575857877731323
4.909457206726074,-0.29265403747558594,-1.3262532949447632
4.913216590881348,-0.29239898920059204,-1.2949748039245605
4.916972637176514,-0.29215553402900696,-1.263750433921814
4.920721054077148,-0.2919233739376068,-1.2325764894485474
4.924472808837891,-0.29170313477516174,-1.2014530897140503
4.928205490112305,-0.29149332642555237,-1.1703721284866333
4.931999683380127,-0.2912987768650055,-1.139350175857544
4.936055660247803,-0.2911311388015747,-1.1084283590316772
4.94089937210083,-0.29102131724357605,-1.0777137279510498
4.946328639984131,-0.29095718264579773,-1.0471458435058594
4.951748847961426,-0.29090362787246704,-1.016588807106018
4.957179069519043,-0.29086169600486755,-0.9860442280769348
4.962580680847168,-0.2908291518688202,-0.9555020928382874
4.968007564544678,-0.29080909490585327,-0.9249705076217651
4.973412036895752,-0.29079872369766235,-0.8944380283355713
4.978845596313477,-0.2908009886741638,-0.8639116287231445
4.984251499176025,-0.290812611579895,-0.8333790302276611
4.989681243896484,-0.29083651304244995,-0.8028464913368225
4.995652675628662,-0.2909028232097626,-0.7723913788795471
5.001948356628418,-0.2909988462924957,-0.7419689297676086
5.008403778076172,-0.2911149263381958,-0.711547315120697
5.014875411987305,-0.29124268889427185,-0.6811017394065857
5.021365642547607,-0.2913822829723358,-0.6506298780441284
5.027870178222656,-0.2915334403514862,-0.6201286315917969
5.036098003387451,-0.29179516434669495,-0.5897955894470215
5.044653415679932,-0.29208651185035706,-0.5594415664672852
5.053219318389893,-0.29238900542259216,-0.5290248990058899
5.0618414878845215,-0.29270538687705994,-0.49854788184165955
5.070464134216309,-0.2930324077606201,-0.4680019021034241
5.07907772064209,-0.2933695912361145,-0.4373840093612671
5.087957859039307,-0.29373282194137573,-0.4067141115665436
5.096996307373047,-0.29411593079566956,-0.3759770393371582
5.10718297958374,-0.294575959444046,-0.3452345132827759
5.1174421310424805,-0.29505085945129395,-0.3143969774246216
5.127695083618164,-0.2955361604690552,-0.2834565043449402
5.138027667999268,-0.29603683948516846,-0.25241512060165405
5.148360729217529,-0.29654839634895325,-0.22126570343971252
