-2.239370871555822617e+01,9.914458178101885899e-01,1.024499450060073613e+01
-2.266210994096961429e+01,1.035531260830055533e+00,1.034182561536927381e+01
-2.295482349202777428e+01,1.083640792232643424e+00,1.044729340283559083e+01
-2.402676469479575161e+01,1.267845966678749381e+00,1.094440128036840321e+01
-1.958141238861608002e+01,1.223530986171852408e+00,1.508768649563116071e+01
-1.954996058977315343e+01,1.189175107341896354e+00,1.485069505963713077e+01
-1.952236126153309215e+01,1.157654621463905631e+00,1.463250085200160555e+01
-1.950530174937764727e+01,1.131629206997047721e+00,1.444995354006362653e+01
-1.950661637118543723e+01,1.114061214786659537e+00,1.432166620672404100e+01
-1.950899700124189806e+01,1.097523190837990104e+00,1.420016983017782231e+01
-1.951141452675198096e+01,1.081554629665504752e+00,1.408251622104706691e+01
-1.951364663131365162e+01,1.066040851932655631e+00,1.396796667751941534e+01
-1.951716818963000577e+01,1.051531531673561393e+00,1.385997497151656432e+01
-1.952477650299967848e+01,1.039049603801857291e+00,1.376492640791718181e+01
-1.953436621874525159e+01,1.027713396412025748e+00,1.367721228440166925e+01
-1.954599674556702027e+01,1.017495491367470084e+00,1.359661278443820720e+01
-1.955809262224689959e+01,1.007771708828102408e+00,1.351919330490907178e+01
-1.956999453525673971e+01,9.982833646355975254e-01,1.344332822105502956e+01
-1.958169906818435635e+01,9.890190743028033360e-01,1.336894224594135316e+01
-1.959311564901569724e+01,9.799374722062457188e-01,1.329577583532435092e+01
-1.960447032364847075e+01,9.711091898499835118e-01,1.322426113920623436e+01
-1.961664555942354937e+01,9.628257535516131504e-01,1.315618308930404723e+01
-1.963020260659195415e+01,9.552551888047564610e-01,1.309254821346639908e+01
-1.964395099750721840e+01,9.479734085618365391e-01,1.303073396235057224e+01
-1.965745372861374207e+01,9.408255599557269200e-01,1.296978645176092115e+01
-1.967097213427512870e+01,9.338912151872027501e-01,1.291018758405105871e+01
-1.968458144601367721e+01,9.271865867196429356e-01,1.285202875817755164e+01
-1.969950536250653528e+01,9.210920713960040196e-01,1.279759638296979851e+01
-1.971446408216887392e+01,9.151839994012225254e-01,1.274431290937444317e+01
-1.972923056419150356e+01,9.093854211388934239e-01,1.269171081890600838e+01
-1.974381111628818175e+01,9.036943100510943516e-01,1.263977644026969038e+01
-1.975818146006455933e+01,8.980994008599627598e-01,1.258844062778028317e+01
-1.977242298968264933e+01,8.926215551911700352e-01,1.253782622985800543e+01
-1.978645983214125437e+01,8.872344277917254551e-01,1.248777413593068530e+01
-1.980078078874754510e+01,8.820783279954302891e-01,1.243910985113349987e+01
-1.981557322368349716e+01,8.772002242623675450e-01,1.239209880178387913e+01
-1.983031669455263923e+01,8.724415682374346837e-01,1.234580022211281758e+01
-1.984491799505126863e+01,8.677718423425067051e-01,1.230003255149942021e+01
-1.985937384619608537e+01,8.631874702988970860e-01,1.225477258132649716e+01
-1.987366020842920022e+01,8.586788557587969883e-01,1.220996308444501111e+01
-1.988793554664042773e+01,8.542873047410357579e-01,1.216584106876786109e+01
-1.990218650838877679e+01,8.500056646882403477e-01,1.212236139785459876e+01
-1.991754393370993625e+01,8.461372040330279454e-01,1.208125356676320727e+01
-1.993321849906567778e+01,8.424579881249774083e-01,1.204121810728690889e+01
-1.994857081819257871e+01,8.387926004945147618e-01,1.200125015273718709e+01
-1.996370354621945609e+01,8.351675652085650547e-01,1.196150179070982311e+01
-1.997867481155785896e+01,8.315970085679400547e-01,1.192205226725023159e+01
-1.999355589168868619e+01,8.280976198731768712e-01,1.188299439596240781e+01
-2.000831647890595022e+01,8.246596835671771153e-01,1.184427231533072522e+01
-2.002303553223935495e+01,8.213015578805316075e-01,1.180598612518110357e+01
-2.003789589726668297e+01,8.180671714364398106e-01,1.176837568339020024e+01
-2.005264192559068093e+01,8.148893498002398594e-01,1.173106552047030249e+01
-2.006727674059029809e+01,8.117673181115496739e-01,1.169404965986395517e+01
-2.008200650634797313e+01,8.087503694115985020e-01,1.165759515427408921e+01
-2.009697983307119884e+01,8.058719419061053379e-01,1.162187921093489074e+01
-2.011201176211846331e+01,8.030840538560259922e-01,1.158663387527309574e+01
-2.012699537998338783e+01,8.003585718690264805e-01,1.155170399726981145e+01
-2.014189589859230622e+01,7.976858995972979649e-01,1.151703504521735155e+01
-2.015667928228878836e+01,7.950565599023211583e-01,1.148257552470076881e+01
-2.017138410395196146e+01,7.924785398064959629e-01,1.144836653746285293e+01
-2.018597538399595237e+01,7.899424217759478672e-01,1.141435708493702172e+01
-2.020053707085505934e+01,7.874667428552020176e-01,1.138064277918355849e+01
-2.021537233556766822e+01,7.851193331300128087e-01,1.134757629385402744e+01
-2.023036159821788260e+01,7.828705094872820958e-01,1.131499395718752154e+01
-2.024542965820435825e+01,7.807008408128131016e-01,1.128279044316748525e+01
-2.026040356053948344e+01,7.785697959481585606e-01,1.125075297628022319e+01
-2.027531318756748746e+01,7.764832757531512364e-01,1.121891024139054771e+01
-2.029017155370052095e+01,7.744431279717791661e-01,1.118727027633392623e+01
-2.030504044614310644e+01,7.724619887887347325e-01,1.115589498886636122e+01
-2.032000099517281200e+01,7.705563090859759434e-01,1.112486430873605947e+01
-2.033500246233624154e+01,7.687135718880999669e-01,1.109411076513188910e+01
-2.034996045566190404e+01,7.669142864762652501e-01,1.106353446248564332e+01
-2.036483880348878017e+01,7.651499293862689122e-01,1.103309096009940404e+01
-2.037968673123416963e+01,7.634302161752093419e-01,1.100282696483018618e+01
-2.039459610860370020e+01,7.617736838876116856e-01,1.097283115755628202e+01
-2.040953198626790410e+01,7.601717494546282872e-01,1.094305821460617878e+01
-2.042441593108031839e+01,7.586071871339190587e-01,1.091342118896348268e+01
-2.043918154967777312e+01,7.570653937875140294e-01,1.088384906037059707e+01
-2.045386252173395292e+01,7.555529855309832676e-01,1.085437258379535486e+01
-2.046852289647043222e+01,7.540824793397296055e-01,1.082505052160124848e+01
-2.048357697735195870e+01,7.527374409257281407e-01,1.079627457514356870e+01
-2.049874438851172087e+01,7.514591597138751133e-01,1.076775919536694559e+01
-2.051388269534896835e+01,7.502175353585589512e-01,1.073936105659872453e+01
-2.052896597820555158e+01,7.490069650231707676e-01,1.071105168072526226e+01
-2.054405291021627988e+01,7.478384755669940098e-01,1.068288097150354332e+01
-2.055931121579905962e+01,7.467447303353655919e-01,1.065499465711227600e+01
-2.057460394948539317e+01,7.456974171220172032e-01,1.062725974671193185e+01
-2.058991762306951046e+01,7.446933172761309727e-01,1.059965824406404167e+01
-2.060517847018718030e+01,7.437174104272235020e-01,1.057212039745143528e+01
-2.062040862657715934e+01,7.427733324586260899e-01,1.054466197901258084e+01
-2.063560821415112656e+01,7.418609045564044102e-01,1.051727955238767720e+01
-2.065075617176688283e+01,7.409755967675555333e-01,1.048995176763617643e+01
-2.066591607917474605e+01,7.401290319978106602e-01,1.046272823941787067e+01
-2.068116442613640871e+01,7.393352769433367833e-01,1.043566676539998284e+01
-2.069658882907761210e+01,7.386101268349993809e-01,1.040883090578942571e+01
-2.071222983196846812e+01,7.379601977883685215e-01,1.038224350399378437e+01
-2.072783041939651838e+01,7.373363755761492833e-01,1.035569188319077583e+01
-2.074341330130485517e+01,7.367426537095416172e-01,1.032919101707307874e+01
-2.075897243170163975e+01,7.361775420724261387e-01,1.030273297855428360e+01
-2.077449860234268186e+01,7.356388948975909337e-01,1.027630770406364569e+01
-2.079001215694705351e+01,7.351302288590777501e-01,1.024992774062141976e+01
-2.080576979211355848e+01,7.346981547891009434e-01,1.022377925695082013e+01
-2.082166813383027915e+01,7.343227647363055333e-01,1.019777650185129048e+01
-2.083768627432135645e+01,7.339997075616229161e-01,1.017189709541283804e+01
-2.085369827301670753e+01,7.337055586396563633e-01,1.014604501361954014e+01
-2.086969659738385019e+01,7.334387682496417149e-01,1.012021194632886179e+01
-2.088568494043451551e+01,7.331998132287371739e-01,1.009439765857140259e+01
-2.090166465502891313e+01,7.329884551583636387e-01,1.006860026916048945e+01
-2.091762878822105165e+01,7.328033231316912754e-01,1.004281229544300658e+01
-2.093360006308719790e+01,7.326482318459857090e-01,1.001704624272075250e+01
-2.094962987615405581e+01,7.325318239747393712e-01,9.991332731513654863e+00
-2.096571440415812049e+01,7.324532054482806309e-01,9.965664827522914493e+00
-2.098193381283265424e+01,7.324259065209735020e-01,9.940089499916030746e+00
-2.099815256030220212e+01,7.324259065209735020e-01,9.914515091731574969e+00
-2.101437400900368502e+01,7.324535630761492833e-01,9.888941010963236522e+00
-2.103060521430270668e+01,7.325098894654620274e-01,9.863368880879695766e+00
-2.104723325953715474e+01,7.326612256585467442e-01,9.838029792679229502e+00
-2.106392364578709930e+01,7.328492187081683262e-01,9.812711823374893783e+00
-2.108387406359178939e+01,7.336188934861529454e-01,9.789290651801561438e+00
-2.116689446831129828e+01,7.451238416253436192e-01,9.802349750932147998e+00
-2.133567273948748166e+01,7.710909627496111973e-01,9.863306504710571687e+00
-2.151624941652124079e+01,7.988955162583697422e-01,9.928419572014645311e+00
-2.171092197881827346e+01,8.289077066003192051e-01,9.998702753745215333e+00
-2.192005818204175327e+01,8.611701510964739903e-01,1.007404323055670403e+01
-2.214773536920272079e+01,8.963446401177752598e-01,1.015632101662049536e+01
-2.239455693409169257e+01,9.345065139352191075e-01,1.024544518347579469e+01
-2.266292106940365514e+01,9.760289572297442540e-01,1.034225028556059023e+01
-2.295560154081576698e+01,1.021342851978431998e+00,1.044769465080156223e+01
-2.402840492134488315e+01,1.195008137088905631e+00,1.094523461725646563e+01
-1.957960765281823612e+01,1.148098089557777701e+00,1.508258265973771373e+01
-1.954598815251838317e+01,1.114982702594887076e+00,1.483967719837495558e+01
-1.951801296157489318e+01,1.085273959499489127e+00,1.462066705035460323e+01
-1.950488147665479843e+01,1.062420108181129752e+00,1.444883020019508635e+01
-1.950347521342958501e+01,1.044880487781654654e+00,1.431343223731303027e+01
-1.950588060421062053e+01,1.029386498790870963e+00,1.419214807665327527e+01
-1.950832236001818032e+01,1.014425852161537467e+00,1.407469925388518917e+01
-1.951057706403035752e+01,9.998906038819659337e-01,1.396034451381019892e+01
-1.951592884788626137e+01,9.869548462449420079e-01,1.385695077482067816e+01
-1.952487444446776976e+01,9.757251523553240879e-01,1.376516100397359388e+01
-1.953370334927428686e+01,9.648157738267291172e-01,1.367564959065502350e+01
-1.954377673744590282e+01,9.546863220750201329e-01,1.359146814613097654e+01
-1.955562088873550053e+01,9.454840205727923497e-01,1.351356075311202964e+01
-1.956751854481037256e+01,9.365884445725787266e-01,1.343777835933941489e+01
-1.957922353136246585e+01,9.279045246659625157e-01,1.336348404163679859e+01
-1.959063586844738580e+01,9.193901203690875157e-01,1.329039621921409342e+01
-1.960254105368701616e+01,9.112935446320880040e-01,1.322014228061384067e+01
-1.961586131959801449e+01,9.038943432389605626e-01,1.315453516744219442e+01
-1.962982386754767461e+01,8.969203017770159825e-01,1.309176485754381858e+01
-1.964356555542231320e+01,8.900850199281085118e-01,1.302994930995206779e+01
-1.965706172268926366e+01,8.833754442750323399e-01,1.296900030932387615e+01
-1.967042230937014935e+01,8.768201254426348790e-01,1.290910146561633098e+01
-1.968354666412025011e+01,8.703830026208270176e-01,1.285001623395830883e+01
-1.969744040288467346e+01,8.643589995919573887e-01,1.279363925289808002e+01
-1.971196989397305899e+01,8.586944125710833653e-01,1.273960424500831579e+01
-1.972673182835615080e+01,8.532590054093707188e-01,1.268706319769359858e+01
-1.974130279608444738e+01,8.479227207719195469e-01,1.263517889829936358e+01
-1.975566956662864015e+01,8.426782868920672520e-01,1.258390277402536128e+01
-1.976994103644551615e+01,8.375530623017657383e-01,1.253340681857826056e+01
-1.978440147260722526e+01,8.326222084580767735e-01,1.248416064682573179e+01
-1.979925397134314125e+01,8.279353164254534825e-01,1.243646742907405134e+01
-1.981414786323827570e+01,8.233887933312762364e-01,1.238966648636973034e+01
-1.982888596123537894e+01,8.189248822747576817e-01,1.234339252871655823e+01
-1.984347962706641866e+01,8.145438812791216954e-01,1.229764609152854327e+01
-1.985792751737424311e+01,8.102426312981951817e-01,1.225240535819900245e+01
-1.987220666254292212e+01,8.060126684724200352e-01,1.220761651405505077e+01
-1.988641916544093036e+01,8.018783114968646153e-01,1.216342669765720608e+01
-1.990064321949218851e+01,7.978564284860003575e-01,1.211993707342577942e+01
-1.991597572050971721e+01,7.942228101312029942e-01,1.207882306473396561e+01
-1.993165922753928498e+01,7.907755755006182774e-01,1.203883397472475281e+01
-1.994707342308926101e+01,7.873542688905108555e-01,1.199899069051137523e+01
-1.996219677233458611e+01,7.839530490456927403e-01,1.195925863675778089e+01
-1.997716063364020656e+01,7.806032084046710118e-01,1.191982757589110697e+01
-1.999203374428936186e+01,7.773200653611529454e-01,1.188078732004807492e+01
-2.000687831729136690e+01,7.741166137276995762e-01,1.184221388566546906e+01
-2.002183118351860003e+01,7.710234902917254551e-01,1.180428452525131888e+01
-2.003668972530068260e+01,7.679897330819476231e-01,1.176669376963159586e+01
-2.005142972431303150e+01,7.650080703317034825e-01,1.172939689088127047e+01
-2.006604968026504920e+01,7.620765946923602208e-01,1.169238209112913651e+01
-2.008055519577750658e+01,7.591954849778521641e-01,1.165564811346491148e+01
-2.009509882146770465e+01,7.563981793938983067e-01,1.161938792033252987e+01
-2.010995150100215056e+01,7.537441037713397129e-01,1.158393937856471467e+01
-2.012489036428669920e+01,7.511797331391680821e-01,1.154898597843796537e+01
-2.013978022947137703e+01,7.486724041520465001e-01,1.151433755721135910e+01
-2.015455302934414661e+01,7.462058447419512852e-01,1.147989847073932168e+01
-2.016925107748008372e+01,7.437881611405718907e-01,1.144571441974686721e+01
-2.018391459533770060e+01,7.414270423470843419e-01,1.141182666371392607e+01
-2.019865969278043849e+01,7.391465090333331212e-01,1.137836613095528904e+01
-2.021388813454010247e+01,7.370309613763201817e-01,1.134579912792826661e+01
-2.022903211362555354e+01,7.349554680405963047e-01,1.131342144285377493e+01
-2.024409378765307110e+01,7.329196713982928379e-01,1.128123007551126200e+01
-2.025905819838269295e+01,7.309195183335650547e-01,1.124920090668612005e+01
-2.027396055647814066e+01,7.289616249619830235e-01,1.121736909614243061e+01
-2.028877112788396175e+01,7.270387791215289219e-01,1.118569431888131760e+01
-2.030349002586714136e+01,7.251502655564654454e-01,1.115417151714439115e+01
-2.031828593063446675e+01,7.233300589143145665e-01,1.112298102528497523e+01
-2.033316191779758952e+01,7.215772055207598790e-01,1.109211448303838310e+01
-2.034806616577263583e+01,7.198800824700701817e-01,1.106150510900446626e+01
-2.036293674859707536e+01,7.182249210893023594e-01,1.103107812101979945e+01
-2.037781008629914226e+01,7.166183374940264805e-01,1.100086536377697932e+01
-2.039274666572811157e+01,7.150712989388812169e-01,1.097092156940330199e+01
-2.040768136384116715e+01,7.135697983323443516e-01,1.094117068438979246e+01
-2.042255838317979411e+01,7.121022127686846837e-01,1.091154982247226357e+01
-2.043731792015444881e+01,7.106560848771441563e-01,1.088199431762744318e+01
-2.045198967446335914e+01,7.092369578896868809e-01,1.085253147527481232e+01
-2.046659663866330803e+01,7.078485868989337071e-01,1.082317995967362556e+01
-2.048148944980032837e+01,7.065576098977435215e-01,1.079427217751848644e+01
-2.049662513785972706e+01,7.053539537011492833e-01,1.076575109023607091e+01
-2.051175603634184341e+01,7.041895173608172520e-01,1.073737060336147309e+01
-2.052695120548458618e+01,7.030765794335711583e-01,1.070918904498902435e+01
-2.054217819248965782e+01,7.020081661759722813e-01,1.068116905389156912e+01
-2.055755522227792298e+01,7.010055564462054356e-01,1.065341084921532655e+01
-2.057290139132724605e+01,7.000342391549456700e-01,1.062574292634293194e+01
-2.058821153667476977e+01,6.990928433953631504e-01,1.059815694702325040e+01
-2.060346566723098505e+01,6.981771968423235997e-01,1.057063170679938047e+01
-2.061868799788420148e+01,6.972914718209612950e-01,1.054318498695697670e+01
-2.063388090369697991e+01,6.964354895173419102e-01,1.051581511833015448e+01
-2.064902186202683509e+01,6.956047199784625157e-01,1.048849951639332900e+01
-2.066413605341399418e+01,6.948036335526812657e-01,1.046125625308775398e+01
-2.067921220789254377e+01,6.940295480309832676e-01,1.043407241475205183e+01
-2.069442496637720197e+01,6.933131002007830723e-01,1.040708574541868536e+01
-2.070980018817947155e+01,6.926580451547015294e-01,1.038030847292239933e+01
-2.072532097062238776e+01,6.920606874047625645e-01,1.035371836512825716e+01
-2.074089693564624071e+01,6.915042780457842930e-01,1.032723691763057516e+01
-2.075644389470653906e+01,6.909738563119280919e-01,1.030079417024677113e+01
-2.077203735462369139e+01,6.904819987832415684e-01,1.027444438719127717e+01
-2.078778165659208810e+01,6.900462888299334629e-01,1.024826054083801274e+01
-2.080371273173198787e+01,6.896721504746783360e-01,1.022226127165497545e+01
-2.081974605983659288e+01,6.893444441377032383e-01,1.019637626393487650e+01
-2.083576303616777281e+01,6.890424274026263340e-01,1.017051399377333709e+01
-2.085176654794906881e+01,6.887663982926715001e-01,1.014467371325078915e+01
-2.086775794912819748e+01,6.885162375985491856e-01,1.011885353966835410e+01
-2.088373859474038241e+01,6.882920049249041661e-01,1.009305158881493547e+01
-2.089971100554658179e+01,6.880938194810259922e-01,1.006726680563691900e+01
-2.091566626904946702e+01,6.879198931275714024e-01,1.004149034873925217e+01
-2.093162190169595860e+01,6.877730868874896153e-01,1.001573134614969263e+01
-2.094757335376706919e+01,6.876522086678851231e-01,9.989983873724336050e+00
-2.096356369640815487e+01,6.875642918168414219e-01,9.964272977736413850e+00
-2.097966201656648622e+01,6.875202439843524083e-01,9.938638981528463034e+00
-2.099582015416746827e+01,6.875117801247943028e-01,9.913045947501604616e+00
-2.101203455127189557e+01,6.875381253777850254e-01,9.887487389126428994e+00
-2.102834227647824861e+01,6.876047633706439122e-01,9.861981998597691756e+00
-2.104501894244773297e+01,6.877560399590838536e-01,9.836691274789979289e+00
-2.106170001962741267e+01,6.879323504983294590e-01,9.811386249985595498e+00
-2.108154738708986997e+01,6.886395000039446934e-01,9.787922979460411455e+00
-2.116297326698209602e+01,6.991851709901202305e-01,9.800077025195260916e+00
-2.133157537246147584e+01,7.235322378693926915e-01,9.860965125378776008e+00
-2.151190892809034949e+01,7.495934151231158360e-01,9.925974419299114615e+00
-2.170631039998815837e+01,7.777225755273211583e-01,9.996142083250227017e+00
-2.191513003607120424e+01,8.079569123803485020e-01,1.007134615776111808e+01
-2.214248938144905310e+01,8.409244798241961583e-01,1.015349176407639220e+01
-2.238897326519043673e+01,8.766933463631976231e-01,1.024247785323158411e+01
-2.265694757437324114e+01,9.156085632859576329e-01,1.033912264822855143e+01
-2.294920263849205710e+01,9.580772303162921055e-01,1.044439411296775511e+01
-2.402204660488559540e+01,1.121089436870704947e+00,1.094200423373331255e+01
-1.958026694518312283e+01,1.073897816997658072e+00,1.508444760984476396e+01
-1.954550494517648573e+01,1.042504408222328482e+00,1.483833592130224410e+01
-1.951811445544148071e+01,1.014956095081459342e+00,1.462094325915873583e+01
-1.950677664681087720e+01,9.942524217187274083e-01,1.445389158918538008e+01
-1.950392584162570841e+01,9.773235105096209629e-01,1.431461382240443214e+01
-1.950595553649712599e+01,9.627041600762713536e-01,1.419234116369820065e+01
-1.950840615661937250e+01,9.487224601327288731e-01,1.407491104983984087e+01
-1.951067863702823857e+01,9.351412437974322422e-01,1.396059611129153843e+01
-1.951761808990037039e+01,9.235889695702899083e-01,1.386107263100645248e+01
-1.952657114825575846e+01,9.130860351144183262e-01,1.376922919876216156e+01
-1.953536456798381238e+01,9.028686665116656407e-01,1.367956540107440055e+01
-1.954473994417868710e+01,8.931652091561663731e-01,1.359370025375377899e+01
-1.955604757822480266e+01,8.843868754922259434e-01,1.351453306282840039e+01
-1.956794979745642848e+01,8.760713122903216465e-01,1.343874514057940317e+01
-1.957966023013887025e+01,8.679538153230059727e-01,1.336444651673194350e+01
-1.959108277168087753e+01,8.599964164315569981e-01,1.329136573920125564e+01
-1.960355324190026494e+01,8.525981687127459629e-01,1.322230301139859243e+01
-1.961737452124432579e+01,8.458280943452227696e-01,1.315771431646246192e+01
-1.963134127248868666e+01,8.393047236024249180e-01,1.309490385997126438e+01
-1.964508248357649123e+01,8.329096816598284825e-01,1.303303833936710809e+01
-1.965858367615589231e+01,8.266338490067828282e-01,1.297205213265752732e+01
-1.967194887054607477e+01,8.205023788033831700e-01,1.291211666355644283e+01
-1.968506780731508954e+01,8.144784949838030919e-01,1.285297526238884913e+01
-1.969824235027897785e+01,8.086421869813311680e-01,1.279517598071319284e+01
-1.971248237963337857e+01,8.032647751389849766e-01,1.274057159230502023e+01
-1.972724838132485559e+01,7.981835387765277012e-01,1.268802407258448639e+01
-1.974182925781876463e+01,7.931965969621050938e-01,1.263614396241032090e+01
-1.975619998694821788e+01,7.882937573014605626e-01,1.258486070020316738e+01
-1.977052705772449670e+01,7.835160873948443516e-01,1.253444995541711648e+01
-1.978524335341370133e+01,7.789720676957476719e-01,1.248563857937284105e+01
-1.980032882030637609e+01,7.746487639962542637e-01,1.243832786727381645e+01
-1.981525466072827157e+01,7.704041384278643712e-01,1.239155518648360577e+01
-1.982999838362241718e+01,7.662299655495989903e-01,1.234526442346157538e+01
-1.984459629552853954e+01,7.621330402909625157e-01,1.229949901464373241e+01
-1.985905041530490678e+01,7.581112168847430333e-01,1.225424308540210205e+01
-1.987333441112016175e+01,7.541557334481585606e-01,1.220943687908508934e+01
-1.988752369237722206e+01,7.502827428399432286e-01,1.216518543136532493e+01
-1.990174277564237926e+01,7.465195439874041661e-01,1.212166433378660457e+01
-1.991707179341889500e+01,7.431196950494158848e-01,1.208052168353580313e+01
-1.993276624047645029e+01,7.398975275575030430e-01,1.204052636494413164e+01
-1.994821032291451601e+01,7.367040298997271641e-01,1.200070604230984195e+01
-1.996335291559749692e+01,7.335267447053301915e-01,1.196097989844966669e+01
-1.997832188411856436e+01,7.303942225991595372e-01,1.192153356877324022e+01
-1.999327207502627601e+01,7.273404382287371739e-01,1.188258295788140906e+01
-2.000820484165157964e+01,7.243634842454302891e-01,1.184411229986933378e+01
-2.002317654690186899e+01,7.214738510667193516e-01,1.180618532814931854e+01
-2.003804078318151838e+01,7.186366699754107579e-01,1.176857767037943070e+01
-2.005278386689325387e+01,7.158477090417254551e-01,1.173126098479297141e+01
-2.006741012191433526e+01,7.131064914285052403e-01,1.169423089234743784e+01
-2.008192066639702844e+01,7.104120038567889317e-01,1.165748012125617805e+01
-2.009641332388510193e+01,7.077839158593524083e-01,1.162112909220505941e+01
-2.011105529479885234e+01,7.052560828744280919e-01,1.158538306509776561e+01
-2.012585970271659974e+01,7.028288029252398594e-01,1.155023767532706636e+01
-2.014073801144236953e+01,7.004810951768267735e-01,1.151555877120316751e+01
-2.015551570518514524e+01,6.981748722611773594e-01,1.148111042955102690e+01
-2.017021850799003957e+01,6.959144257127154454e-01,1.144691731694108228e+01
-2.018506463757588421e+01,6.937432073174822911e-01,1.141323870899287485e+01
-2.020005361172590597e+01,6.916591309129107579e-01,1.138005649191979884e+01
-2.021528867872402913e+01,6.896808527528155430e-01,1.134747619278138053e+01
-2.023043780414752746e+01,6.877398274957049473e-01,1.131508400120577740e+01
-2.024550564668774300e+01,6.858361147462237462e-01,1.128287915613107550e+01
-2.026047640425371910e+01,6.839657209931719883e-01,1.125083707831976909e+01
-2.027538225146316364e+01,6.821342490731585606e-01,1.121898898213922990e+01
-2.029019878258010223e+01,6.803360961495745762e-01,1.118730101748985106e+01
-2.030492261809976284e+01,6.785699509202349766e-01,1.115576399959573983e+01
-2.031966333496697175e+01,6.768560193597186192e-01,1.112449343967315052e+01
-2.033441213846755247e+01,6.751916788636553868e-01,1.109347053203105027e+01
-2.034926245545276657e+01,6.735934995232928379e-01,1.106278669255472735e+01
-2.036413806702591955e+01,6.720458053170550450e-01,1.103234944512804461e+01
-2.037904227488963471e+01,6.705483578263629063e-01,1.100215338193957137e+01
-2.039399614916307613e+01,6.691040180741656407e-01,1.097221167335092140e+01
-2.040893665027530801e+01,6.677001498757708653e-01,1.094245108569959513e+01
-2.042381922468893052e+01,6.663278721391070469e-01,1.091282004917953863e+01
-2.043858280303792085e+01,6.649755023537982090e-01,1.088325320773312654e+01
-2.045326071267098200e+01,6.636486433564532383e-01,1.085378098953543891e+01
-2.046787207057023039e+01,6.623502753793109044e-01,1.082441846412541686e+01
-2.048267430869906391e+01,6.611259959756243809e-01,1.079540876406633565e+01
-2.049780125435544420e+01,6.599981568871844395e-01,1.076686553151439263e+01
-2.051293482835696835e+01,6.589090012132037266e-01,1.073847397387512004e+01
-2.052824840961042696e+01,6.578882120667803868e-01,1.071038829080848842e+01
-2.054358882840936218e+01,6.569080732880938633e-01,1.068245721621104494e+01
-2.055898095652472080e+01,6.559721015511859044e-01,1.065469680124671648e+01
-2.057433151495100887e+01,6.550636075555194004e-01,1.062701705786619044e+01
-2.058964675432542890e+01,6.541831873475421055e-01,1.059941991162389030e+01
-2.060490668355847532e+01,6.533269666253436192e-01,1.057188415806291104e+01
-2.062013481288853711e+01,6.524986408769000157e-01,1.054442692488339794e+01
-2.063533272572755095e+01,6.516980908929217442e-01,1.051704601031059205e+01
-2.065047939573358704e+01,6.509213231622088536e-01,1.048972001601329040e+01
-2.066559970332229312e+01,6.501722119866717442e-01,1.046246661455401572e+01
-2.068068267865232102e+01,6.494484923898089512e-01,1.043527329165012318e+01
-2.069580000938139364e+01,6.487618468819964512e-01,1.040819472190156247e+01
-2.071097019500848546e+01,6.481146596490252598e-01,1.038124029979635843e+01
-2.072644082567094870e+01,6.475470446168292149e-01,1.035459905630947830e+01
-2.074201850050691576e+01,6.470263980447161778e-01,1.032810788088777088e+01
-2.075757358520702311e+01,6.465309642373431309e-01,1.030166036827127130e+01
-2.077323260876637079e+01,6.460810087739337071e-01,1.027534927412701649e+01
-2.078917289634684451e+01,6.457043670235980137e-01,1.024930044287700959e+01
-2.080518003112129577e+01,6.453658126412737950e-01,1.022334405198112073e+01
-2.082121873921207822e+01,6.450592659531939610e-01,1.019744911312396951e+01
-2.083724146742955341e+01,6.447769187508929356e-01,1.017157721139838955e+01
-2.085325111387234287e+01,6.445187710343707188e-01,1.014572758376273320e+01
-2.086924786676243571e+01,6.442848228036273106e-01,1.011989751836065210e+01
-2.088523463507352318e+01,6.440751336633074864e-01,1.009408623702841368e+01
-2.090121160050255256e+01,6.438895844041216954e-01,1.006829103698291483e+01
-2.091717455478041288e+01,6.437272809563983067e-01,1.004250633599509257e+01
-2.093313552500026020e+01,6.435898922501910313e-01,1.001673746124458830e+01
-2.094909270176996330e+01,6.434768818436968907e-01,9.990980395060390151e+00
-2.096505908653463734e+01,6.433900378762591465e-01,9.965240743180082461e+00
-2.098107001663507631e+01,6.433346055566180333e-01,9.939537971737204103e+00
-2.099719131239309533e+01,6.433203004418719395e-01,9.913909596013795067e+00
-2.101341313924284648e+01,6.433451555787432774e-01,9.888343973226493944e+00
-2.102979601960919709e+01,6.434181116639483555e-01,9.862872918164381275e+00
-2.104647877562464942e+01,6.435594938813555821e-01,9.837573725992212914e+00
-2.106316599505068865e+01,6.437244795380938633e-01,9.812260160237393336e+00
-2.108298358024736530e+01,6.443802498399127110e-01,9.788767248976141033e+00
-2.116366185293674818e+01,6.541256092606890782e-01,9.800476083524156223e+00
-2.133226932619050586e+01,6.768843315659869297e-01,9.861361619938051604e+00
-2.151258984147316156e+01,7.012426637231219395e-01,9.926358011827147720e+00
-2.170699247929053044e+01,7.275361202775347813e-01,9.996520787698838006e+00
-2.191576433793573386e+01,7.557902120171893223e-01,1.007169329280242032e+01
-2.214312249600382287e+01,7.866060517846453770e-01,1.015383319971561882e+01
-2.238957154711899733e+01,8.200354360162127598e-01,1.024279585408027771e+01
-2.265750181523756979e+01,8.564045809327471837e-01,1.033941286795286274e+01
-2.294971154203774688e+01,8.960951946793902501e-01,1.044465672062329098e+01
-2.402313840154970137e+01,1.048554398876320182e+00,1.094255887161289742e+01
-1.957862530360150188e+01,9.990035079537737950e-01,1.507980465678149073e+01
-1.954126109987349480e+01,9.688863538323748692e-01,1.482656431703387412e+01
-1.951615601308057180e+01,9.440766953050006016e-01,1.461561376638924870e+01
-1.950774717512776490e+01,9.258282564698565587e-01,1.445648430212767543e+01
-1.950222260047788581e+01,9.091729901849139317e-01,1.431014799658905012e+01
-1.950304249792096911e+01,8.951802037774432286e-01,1.418484272744676034e+01
-1.950551666142316165e+01,8.821950934945452794e-01,1.406760692119270217e+01
-1.950883001145897921e+01,8.699084304391253575e-01,1.395600576237772117e+01
-1.951792001257052434e+01,8.598499082146990879e-01,1.386180926064984575e+01
-1.952685506888132494e+01,8.500714682160723790e-01,1.376991000645556973e+01
-1.953559989225505689e+01,8.405495666085589512e-01,1.368012022305879860e+01
-1.954419553204096260e+01,8.312849186478961094e-01,1.359243918325506861e+01
-1.955399532711206945e+01,8.226700209199298008e-01,1.350985589097374273e+01
-1.956567570196851946e+01,8.148767732201922520e-01,1.343364794400985929e+01
-1.957738757587134515e+01,8.073341630517352208e-01,1.335943552074801488e+01
-1.958945749544554005e+01,8.001252196847308262e-01,1.328783933963113739e+01
-1.960304638878213623e+01,7.935648940621722325e-01,1.322122165965703999e+01
-1.961720603830927701e+01,7.873625539361346348e-01,1.315736056535753917e+01
-1.963116189817901613e+01,7.812911056100237950e-01,1.309453258521595309e+01
-1.964489204821323654e+01,7.753391049920428379e-01,1.303265059361397959e+01
-1.965838193181486915e+01,7.694979690133441075e-01,1.297164744394186187e+01
-1.967173603467355036e+01,7.637912415086138829e-01,1.291169636293290779e+01
-1.968484795542109111e+01,7.581857822953570469e-01,1.285254756682025779e+01
-1.969779552584720150e+01,7.526978038369525059e-01,1.279431987378793423e+01
-1.971100767794828101e+01,7.474329255639422520e-01,1.273778809839846815e+01
-1.972496256049332430e+01,7.425043963013995274e-01,1.268377214067281678e+01
-1.973953491845996311e+01,7.378691218911517247e-01,1.263193817753257342e+01
-1.975392027744478796e+01,7.333178304253924473e-01,1.258074237780821747e+01
-1.976891913220533326e+01,7.290437005578387364e-01,1.253158709873622811e+01
-1.978404556043352258e+01,7.249197147904742344e-01,1.248353584289895579e+01
-1.979912442802180195e+01,7.208990834771502598e-01,1.243624329110710214e+01
-1.981404292536674561e+01,7.169513486443865879e-01,1.238948735472991025e+01
-1.982878068400591332e+01,7.130694769440997227e-01,1.234321550238186838e+01
-1.984337216628660627e+01,7.092593096314776524e-01,1.229746720121863035e+01
-1.985781844713766375e+01,7.055187605439532383e-01,1.225222707246058462e+01
-1.987209615252854533e+01,7.018400810777056797e-01,1.220743778023555848e+01
-1.988622377303663313e+01,6.982256554185259922e-01,1.216311526511427310e+01
-1.990041758853939058e+01,6.947217963754046544e-01,1.211958275055594392e+01
-1.991572183440186805e+01,6.915561340867388829e-01,1.207842962725497138e+01
-1.993141621961750332e+01,6.885611198960650547e-01,1.203846216278327574e+01
-1.994689731191610349e+01,6.856009148179400547e-01,1.199872513408061536e+01
-1.996207032922984936e+01,6.826540015755999669e-01,1.195907020663203291e+01
-1.997704272003608494e+01,6.797429703294146641e-01,1.191965423669449464e+01
-1.999214507266371399e+01,6.769364260255206212e-01,1.188094858172464896e+01
-2.000722212839095704e+01,6.741991423188555821e-01,1.184270605858370118e+01
-2.002220254966716695e+01,6.715143703042376622e-01,1.180480943590747600e+01
-2.003706158319678821e+01,6.688754342614520176e-01,1.176721227953287219e+01
-2.005179720236294116e+01,6.662809036790240391e-01,1.172990270674919344e+01
-2.006641775878563294e+01,6.637310765801776036e-01,1.169288217176951328e+01
-2.008092045159751038e+01,6.612244032441485508e-01,1.165613823507893088e+01
-2.009531546796629087e+01,6.587615393220294102e-01,1.161967469877228254e+01
-2.010961946292164981e+01,6.563448093949664219e-01,1.158350515553851956e+01
-2.012414487124437201e+01,6.540341757356036290e-01,1.154802330039397518e+01
-2.013888188967723281e+01,6.518251679955828770e-01,1.151319212902152245e+01
-2.015365674210093871e+01,6.496817849694598301e-01,1.147876978945595638e+01
-2.016850468284567199e+01,6.476093910752642735e-01,1.144478648048427161e+01
-2.018365938416163274e+01,6.456504844247210606e-01,1.141151347290001361e+01
-2.019897624718077367e+01,6.437753223000872715e-01,1.137875001398731456e+01
-2.021420568518102456e+01,6.419352673112261876e-01,1.134617917553343958e+01
-2.022934664140900551e+01,6.401293657838214024e-01,1.131379344317510593e+01
-2.024440917247606109e+01,6.383587502061236485e-01,1.128159843396835527e+01
-2.025937183044704071e+01,6.366185926019061192e-01,1.124956271859300827e+01
-2.027427504558202642e+01,6.349156282960284337e-01,1.121772726618508287e+01
-2.028908411215338603e+01,6.332427047311175450e-01,1.118604641433848101e+01
-2.030380277540093559e+01,6.316000007211077794e-01,1.115451903874970796e+01
-2.031846870794084126e+01,6.299935959397662266e-01,1.112318177603282798e+01
-2.033306124473310206e+01,6.284189008294451817e-01,1.109200537507046036e+01
-2.034775859626955707e+01,6.269066713868487462e-01,1.106117570243248238e+01
-2.036252018488742976e+01,6.254486225663531407e-01,1.103063729317686992e+01
-2.037743691475120755e+01,6.240594767152178868e-01,1.100047527053380492e+01
-2.039240725619989192e+01,6.227203391610491856e-01,1.097057110042956118e+01
-2.040734046222399556e+01,6.214146994172442540e-01,1.094082310691347004e+01
-2.042221718564962885e+01,6.201386831818926915e-01,1.091120592330901218e+01
-2.043697452588539321e+01,6.188811443864215001e-01,1.088165265637609735e+01
-2.045164594948104764e+01,6.176472090302813633e-01,1.085219354072718900e+01
-2.046625113886759806e+01,6.164399169503558262e-01,1.082284449304935769e+01
-2.048090311643740336e+01,6.152774475633013829e-01,1.079370969989909135e+01
-2.049602710795075922e+01,6.142294190942156895e-01,1.076518445922207334e+01
-2.051129964949380025e+01,6.132406376420367344e-01,1.073694349841874640e+01
-2.052673354257627736e+01,6.123121760903704747e-01,1.070898780098418968e+01
-2.054216082416536082e+01,6.114157818375933751e-01,1.068115318621851806e+01
-2.055755275600313681e+01,6.105462692796099766e-01,1.065340856166604055e+01
-2.057289635437688702e+01,6.097011946259844883e-01,1.062573849641631796e+01
-2.058820540794923915e+01,6.088823460160601719e-01,1.059815158510902577e+01
-2.060345952110531798e+01,6.080860875665057286e-01,1.057062636908048248e+01
-2.061868220408351249e+01,6.073158167420733555e-01,1.054317997603083334e+01
-2.063387361359574967e+01,6.065711759148944004e-01,1.051580892120962574e+01
-2.064901341054991235e+01,6.058486484109271153e-01,1.048849248406649437e+01
-2.066412684508673436e+01,6.051518105088580235e-01,1.046124863976138997e+01
-2.067920442626529365e+01,6.044788740693438633e-01,1.043406608440138150e+01
-2.069424428817069384e+01,6.038291834412921055e-01,1.040694006220213907e+01
-2.070926391239423836e+01,6.032051228104937657e-01,1.037988138307832919e+01
-2.072448998863308489e+01,6.026410244523394688e-01,1.035306485499072693e+01
-2.073978554476473590e+01,6.021151922761309727e-01,1.032637385835534971e+01
-2.075557316012081444e+01,6.016910456239092930e-01,1.030012651679180813e+01
-2.077143687631350488e+01,6.013046287118304356e-01,1.027398978312166911e+01
-2.078750089102488730e+01,6.009739421426165684e-01,1.024805067095638833e+01
-2.080354927146905197e+01,6.006663225709307774e-01,1.022214064902557951e+01
-2.081957994619207852e+01,6.003810547410357579e-01,1.019625524735221056e+01
-2.083559502381699957e+01,6.001182578622210606e-01,1.017039316726135212e+01
-2.085159740570495757e+01,5.998781107484210118e-01,1.014455364117472413e+01
-2.086758572178943538e+01,5.996602557717669590e-01,1.011873285723744331e+01
-2.088356521902064600e+01,5.994651697694171055e-01,1.009293168652748385e+01
-2.089953451101944637e+01,5.992924355088580235e-01,1.006714633987306939e+01
-2.091548900891654483e+01,5.991412185250628575e-01,1.004137094756979209e+01
-2.093144308430666456e+01,5.990134261666644200e-01,1.001561247696574242e+01
-2.094739217877073756e+01,5.989081047593463047e-01,9.989865016014688237e+00
-2.096333003313763044e+01,5.988242410241473301e-01,9.964121750771099073e+00
-2.097926675627446258e+01,5.987630866586077794e-01,9.938386592208784620e+00
-2.099528334468771007e+01,5.987358473359454258e-01,9.912707804412763224e+00
-2.101139233012970919e+01,5.987441323815692051e-01,9.887088379401941296e+00
-2.102788775067163840e+01,5.988288901864398106e-01,9.861703397109709002e+00
-2.104456369880263722e+01,5.989604972421038731e-01,9.836416121603619445e+00
-2.106124245744250700e+01,5.991138003884661778e-01,9.811113504078431191e+00
-2.108095870183215936e+01,5.997107409058917149e-01,9.787576933422574399e+00
-2.116005819149393474e+01,6.085594080506671055e-01,9.798387410037200596e+00
-2.132847877702296202e+01,6.297090433656085118e-01,9.859195517530761066e+00
-2.150858872011967904e+01,6.523436091958392247e-01,9.924104128737669228e+00
-2.170274149004658426e+01,6.767733477174151524e-01,9.994160261741766860e+00
-2.191121673828363470e+01,7.030208490907061680e-01,1.006920454942226861e+01
-2.213827264852254473e+01,7.316513441621173008e-01,1.015121754421332234e+01
-2.238439328356164992e+01,7.627099536477435215e-01,1.024004393833253168e+01
-2.265192815362973633e+01,7.964947007714617833e-01,1.033649450895259747e+01
-2.294373935035578782e+01,8.333694718896258458e-01,1.044157627352936757e+01
-2.401730394321829110e+01,9.752309702454913243e-01,1.093959480230553361e+01
-1.958244186803224807e+01,9.261724136887896641e-01,1.509059823998958727e+01
-1.954057905445284504e+01,8.968112252770770176e-01,1.482467301924868153e+01
-1.951779706039408069e+01,8.746062301217425450e-01,1.462007950309953586e+01
-1.950969747001291665e+01,8.578102372704852208e-01,1.446169281721122957e+01
-1.950347801884079146e+01,8.421728991090167149e-01,1.431343895354220663e+01
-1.950300731086263895e+01,8.288237236558306797e-01,1.418475281531399013e+01
-1.950549103878561041e+01,8.168116591988909825e-01,1.406754209484089024e+01
-1.951036839864594086e+01,8.059077046929705723e-01,1.395982530911932429e+01
-1.951949235395396798e+01,7.966037176667559727e-01,1.386564529656471834e+01
-1.952841843079745487e+01,7.875465534745562657e-01,1.377365970668459916e+01
-1.953716354343317363e+01,7.787294171868670567e-01,1.368380581771099891e+01
-1.954571905263783194e+01,7.701391957818377598e-01,1.359596905271286182e+01
-1.955452312921571334e+01,7.618870519219744786e-01,1.351105920389630732e+01
-1.956599149287562867e+01,7.546161793290484532e-01,1.343435548900009557e+01
-1.957770717297411522e+01,7.476368926583636387e-01,1.336014022325484873e+01
-1.959029980372633162e+01,7.411040447770465001e-01,1.328966704619288919e+01
-1.960443230890266264e+01,7.351729653893817051e-01,1.322418005930286711e+01
-1.961859582236656152e+01,7.294304154931414708e-01,1.316028092371567304e+01
-1.963255664659291000e+01,7.238091014443743809e-01,1.309741745567259841e+01
-1.964629109545641228e+01,7.182984732209551915e-01,1.303550008489226641e+01
-1.965977996275638162e+01,7.128891132890093907e-01,1.297445097925539237e+01
-1.967313882981478201e+01,7.076055787621844395e-01,1.291446632208746337e+01
-1.968625410546216514e+01,7.024156235276568516e-01,1.285528264264481990e+01
-1.969917365314019975e+01,6.973268769799578770e-01,1.279696079229071692e+01
-1.971194818536821813e+01,6.923476837693560704e-01,1.273956337764051305e+01
-1.972550705064932686e+01,6.876919053613055333e-01,1.268478482295949483e+01
-1.973997814272595264e+01,6.833780191956866368e-01,1.263275028800288347e+01
-1.975450043499026975e+01,6.791970513879168614e-01,1.258179040147976657e+01
-1.976976229541310559e+01,6.753003977357256993e-01,1.253308856606992272e+01
-1.978501126911661601e+01,6.715098999558795079e-01,1.248523116011164902e+01
-1.980009467847145288e+01,6.677883051453936680e-01,1.243792249236191516e+01
-1.981501807423027017e+01,6.641343616067278965e-01,1.239115157751889562e+01
-1.982975924373821286e+01,6.605409763871539219e-01,1.234486191491672180e+01
-1.984435608980322030e+01,6.570145271836627110e-01,1.229910043830703792e+01
-1.985880691242083884e+01,6.535520933686602696e-01,1.225384419359111376e+01
-1.987308846357302272e+01,6.501470588265765294e-01,1.220903975322129220e+01
-1.988721243116113158e+01,6.467999003945696934e-01,1.216468964919358164e+01
-1.990138389480798864e+01,6.435511492310870274e-01,1.212110082753200402e+01
-1.991668180835177893e+01,6.406187199174273594e-01,1.207991730741994907e+01
-1.993238050469916445e+01,6.378464482842791661e-01,1.203993649782283981e+01
-1.994788121437209938e+01,6.351095818101275547e-01,1.200020975930283385e+01
-1.996310755854722530e+01,6.323916100083697422e-01,1.196061461986984575e+01
-1.997817736393876942e+01,6.297153614579547032e-01,1.192132127270461517e+01
-1.999333620138547829e+01,6.271275662003863438e-01,1.188267591478727780e+01
-2.000842126117313668e+01,6.245942495881426915e-01,1.184442226179590385e+01
-2.002340703758897433e+01,6.221090339242327794e-01,1.180651084227464409e+01
-2.003826888606056755e+01,6.196658395348895176e-01,1.176889588758773186e+01
-2.005301173503667300e+01,6.172645472108233555e-01,1.173157462814942420e+01
-2.006763464967557198e+01,6.149037860452044590e-01,1.169453611323664077e+01
-2.008214248882550379e+01,6.125833772240985020e-01,1.165777767004494869e+01
-2.009653940668474448e+01,6.103030227242816075e-01,1.162129597218440402e+01
-2.011084858710076162e+01,6.080659411965716465e-01,1.158511268475817069e+01
-2.012523056247499653e+01,6.059001468240130528e-01,1.154942518881833813e+01
-2.013974288346765107e+01,6.038141630708087071e-01,1.151428984920925025e+01
-2.015452186415558344e+01,6.018305800973284825e-01,1.147985931905796875e+01
-2.016962782193063219e+01,5.999573849259722813e-01,1.144618284915933337e+01
-2.018489959022801727e+01,5.981639407693255528e-01,1.141303617215436361e+01
-2.020021963348112948e+01,5.964277766763079747e-01,1.138025767381999742e+01
-2.021545370013783582e+01,5.947244547425616368e-01,1.134767386542411671e+01
-2.023060316491928035e+01,5.930533193169940098e-01,1.131527956854338335e+01
-2.024566746692043040e+01,5.914137147485125645e-01,1.128306821274394345e+01
-2.026063595404616535e+01,5.898030184327471837e-01,1.125102112494153950e+01
-2.027554429368596800e+01,5.882266543923724278e-01,1.121917364652104254e+01
-2.029035816723743935e+01,5.866780065118182286e-01,1.118748039347846301e+01
-2.030508220291399013e+01,5.851574920235980137e-01,1.115594146384183816e+01
-2.031975096768524125e+01,5.836699985085833653e-01,1.112458964560983077e+01
-2.033434052118568047e+01,5.822111152230609044e-01,1.109339289170222287e+01
-2.034894659982938947e+01,5.807956837235797032e-01,1.106244839030404847e+01
-2.036359880778001852e+01,5.794275783120501622e-01,1.103177867942033252e+01
-2.037851288916604631e+01,5.781406544267047032e-01,1.100159992181261970e+01
-2.039349895080269448e+01,5.769029639779437169e-01,1.097169839367424338e+01
-2.040843758134543151e+01,5.756946586190569981e-01,1.094194204051682640e+01
-2.042331860271426791e+01,5.745135329781878575e-01,1.091231561367408709e+01
-2.043808059321819570e+01,5.733496330796588047e-01,1.088275343029564723e+01
-2.045275561010711485e+01,5.722073696671832188e-01,1.085328441782294817e+01
-2.046736611961151198e+01,5.710900806008685215e-01,1.082392715567575436e+01
-2.048196911580890500e+01,5.700059317170489415e-01,1.079473224896386085e+01
-2.049711242036043757e+01,5.690381907044756993e-01,1.076621282139895541e+01
-2.051251607068013527e+01,5.681422136842120274e-01,1.073808193253852750e+01
-2.052798064695592473e+01,5.672867082177508458e-01,1.071014073901370089e+01
-2.054341370106626741e+01,5.664571307717669590e-01,1.068229728070016371e+01
-2.055881140542530261e+01,5.656523488580096348e-01,1.065454381259982242e+01
-2.057416003687011496e+01,5.648700974999774083e-01,1.062686429860738002e+01
-2.058947481076332764e+01,5.641122840463030919e-01,1.059926861633820394e+01
-2.060473356986523541e+01,5.633751534043658360e-01,1.057173367316483947e+01
-2.061996121631396051e+01,5.626621626435626133e-01,1.054427792815377884e+01
-2.063515795902183214e+01,5.619730137406695469e-01,1.051689782396858597e+01
-2.065030234972142509e+01,5.613041304170001133e-01,1.048957173226661332e+01
-2.066542145237872674e+01,5.606591485558856114e-01,1.046231918958561025e+01
-2.068050359250245052e+01,5.600362204133380040e-01,1.043512702805741199e+01
-2.069554834827786394e+01,5.594348691521990879e-01,1.040799175067806637e+01
-2.071057210082101463e+01,5.588571213303912266e-01,1.038092324747228368e+01
-2.072564886059640088e+01,5.583131693421710118e-01,1.035397622995637157e+01
-2.074074317328308581e+01,5.577975295602191075e-01,1.032711751059708050e+01
-2.075671760920279496e+01,5.574306033669818028e-01,1.030100404430713645e+01
-2.077271465327037347e+01,5.570908568917620762e-01,1.027495714596502729e+01
-2.078878364447469806e+01,5.567847870408404454e-01,1.024900948043996607e+01
-2.080483546161094210e+01,5.564997576295245274e-01,1.022308977944330799e+01
-2.082086955018837315e+01,5.562354706345904454e-01,1.019719473046045799e+01
-2.083689034484394753e+01,5.559922836839068516e-01,1.017132470069246608e+01
-2.085289611013608280e+01,5.557698391496050938e-01,1.014547556963817776e+01
-2.086888935160061465e+01,5.555681370316851719e-01,1.011964630341489269e+01
-2.088487336859900978e+01,5.553874157487261876e-01,1.009383639772435615e+01
-2.090084797201558686e+01,5.552276156960833653e-01,1.006804284869824428e+01
-2.091680618932921121e+01,5.550874851762164219e-01,1.004225820090318066e+01
-2.093276476708638256e+01,5.549690507470477208e-01,1.001649101951388587e+01
-2.094871756356684855e+01,5.548714183389056309e-01,9.990734327266370229e+00
-2.096465988550053083e+01,5.547936938821185215e-01,9.964982399628189214e+00
-2.098060068907892273e+01,5.547369502602923497e-01,9.939238300269183313e+00
-2.099657081836348027e+01,5.547050021706927403e-01,9.913518759536685820e+00
-2.101259961679278021e+01,5.547015451012957676e-01,9.887838510884353838e+00
-2.102915678220187345e+01,5.547873757897723301e-01,9.862481193415092662e+00
-2.104583687599723163e+01,5.549090884744036778e-01,9.837185703127957481e+00
-2.106252180292828058e+01,5.550510667382586583e-01,9.811876141855599087e+00
-2.108219635105984935e+01,5.555975221215594395e-01,9.788304446014407745e+00
-2.116055314866822101e+01,5.636892698823321446e-01,9.798674310736100068e+00
-2.132896078949637797e+01,5.832569979249346837e-01,9.859471016620373618e+00
-2.150906568267570407e+01,6.041998647271502598e-01,9.924372765802779384e+00
-2.170320693460174866e+01,6.268028400956500157e-01,9.994418780173283778e+00
-2.191162727611249039e+01,6.510824345170367344e-01,1.006942916125981036e+01
-2.213867044169665732e+01,6.775722287713397129e-01,1.015143210969156939e+01
-2.238475530450245543e+01,7.063058994828570469e-01,1.024023637556790689e+01
-2.265222167479463522e+01,7.375580452500689610e-01,1.033664825649753105e+01
-2.294400283656533901e+01,7.716742538033831700e-01,1.044171216564425997e+01
-2.401830500839011151e+01,9.030296586572039708e-01,1.094010327891178136e+01
-1.958614670044664763e+01,8.532476209222186192e-01,1.510107594796709307e+01
-1.953978580744296067e+01,8.248794458924639805e-01,1.482247327575669793e+01
