9.483283996582031,0.045624833554029465,-18.278026580810547
9.519533157348633,0.04553021490573883,-18.211000442504883
9.555639266967773,0.045436449348926544,-18.14426612854004
9.591623306274414,0.04534361883997917,-18.07785415649414
9.627348899841309,0.045251064002513885,-18.011503219604492
9.663034439086914,0.045159801840782166,-17.945615768432617
9.698615074157715,0.045069508254528046,-17.880064010620117
9.7339506149292,0.0449795238673687,-17.814584732055664
9.769143104553223,0.044890306890010834,-17.74936294555664
9.804228782653809,0.04480200633406639,-17.6844539642334
9.839197158813477,0.04471457004547119,-17.619836807250977
9.874032974243164,0.044627901166677475,-17.55547332763672
9.908761978149414,0.044542115181684494,-17.491411209106445
9.943278312683105,0.04445672035217285,-17.427452087402344
9.977776527404785,0.044372573494911194,-17.363937377929688
10.01196002960205,0.04428834468126297,-17.30034065246582
10.046154975891113,0.04420546442270279,-17.237226486206055
10.080232620239258,0.04412335529923439,-17.174365997314453
10.114117622375488,0.044041674584150314,-17.111621856689453
10.147908210754395,0.04396084323525429,-17.049163818359375
10.181587219238281,0.04388076812028885,-16.98695182800293
10.215093612670898,0.04380118101835251,-16.924882888793945
10.248502731323242,0.04372239485383034,-16.86307716369629
10.281810760498047,0.04364437982439995,-16.801523208618164
10.314959526062012,0.043566878885030746,-16.74011993408203
10.348113059997559,0.04349057376384735,-16.67913246154785
10.380987167358398,0.04341425746679306,-16.618093490600586
10.413894653320312,0.043339237570762634,-16.557506561279297
10.446504592895508,0.04326411336660385,-16.49683380126953
10.47917652130127,0.043190378695726395,-16.4366455078125
10.5116548538208,0.04311695694923401,-16.37653160095215
10.544084548950195,0.04304444417357445,-16.31671714782715
10.576343536376953,0.042972322553396225,-16.257007598876953
10.608431816101074,0.04290059208869934,-16.19740104675293
10.640588760375977,0.0428302064538002,-16.13825798034668
10.672457695007324,0.042759720236063004,-16.079030990600586
10.704307556152344,0.042690210044384,-16.02012825012207
10.736083984375,0.042621441185474396,-15.96146011352539
10.767740249633789,0.04255321994423866,-15.90295124053955
10.799328804016113,0.04248575121164322,-15.844679832458496
10.830690383911133,0.04241839051246643,-15.786404609680176
10.862106323242188,0.04235224425792694,-15.728536605834961
10.893292427062988,0.042286187410354614,-15.670658111572266
10.9244384765625,0.04222095012664795,-15.61303997039795
10.955571174621582,0.042156629264354706,-15.555716514587402
10.986456871032715,0.04209231212735176,-15.498351097106934
11.017334938049316,0.042028915137052536,-15.441280364990234
11.048075675964355,0.04196593537926674,-15.384318351745605
11.078821182250977,0.04190390184521675,-15.32766056060791
11.109427452087402,0.0418422594666481,-15.271101951599121
11.13984203338623,0.041780807077884674,-15.214569091796875
11.170330047607422,0.04172053560614586,-15.158421516418457
11.200629234313965,0.041660454124212265,-15.102299690246582
11.23080825805664,0.04160080850124359,-15.046294212341309
11.26099967956543,0.04154209420084953,-14.990579605102539
11.291089057922363,0.041483864188194275,-14.93499755859375
11.321075439453125,0.041426122188568115,-14.879546165466309
11.350988388061523,0.041368961334228516,-14.824261665344238
11.380793571472168,0.04131225869059563,-14.769094467163086
11.410530090332031,0.0412561409175396,-14.714095115661621
11.440176963806152,0.04120052978396416,-14.659232139587402
11.469733238220215,0.041145410388708115,-14.604501724243164
11.499235153198242,0.04109092056751251,-14.549949645996094
11.52864933013916,0.04103691875934601,-14.495527267456055
11.55799388885498,0.040983472019433975,-14.441256523132324
11.587285041809082,0.04093062877655029,-14.387154579162598
11.616395950317383,0.04087793827056885,-14.333063125610352
11.645553588867188,0.04082619026303291,-14.279256820678711
11.674562454223633,0.040774691849946976,-14.225495338439941
11.703506469726562,0.040723737329244614,-14.171878814697266
11.732396125793457,0.04067334905266762,-14.118415832519531
11.761258125305176,0.04062362387776375,-14.06513786315918
11.789962768554688,0.0405740961432457,-14.011885643005371
11.818726539611816,0.040525514632463455,-13.958913803100586
11.847260475158691,0.040476877242326736,-13.905879020690918
11.87586498260498,0.04042920470237732,-13.853133201599121
11.904327392578125,0.0403817780315876,-13.800423622131348
11.932765007019043,0.040334977209568024,-13.747885704040527
11.961084365844727,0.04028848558664322,-13.69540786743164
11.989389419555664,0.040242649614810944,-13.643108367919922
12.017574310302734,0.04019710794091225,-13.590863227844238
12.045742988586426,0.040152207016944885,-13.538789749145508
12.073797225952148,0.0401076078414917,-13.486773490905762
12.101862907409668,0.040063731372356415,-13.434953689575195
12.129829406738281,0.04002019762992859,-13.383204460144043
12.157692909240723,0.039976995438337326,-13.331520080566406
12.185563087463379,0.03993447870016098,-13.280020713806152
12.213339805603027,0.03989231586456299,-13.228591918945312
12.2410306930542,0.03985052928328514,-13.177241325378418
12.268739700317383,0.0398094467818737,-13.126078605651855
12.296381950378418,0.03976879268884659,-13.075011253356934
12.323848724365234,0.039728209376335144,-13.023920059204102
12.351347923278809,0.039688363671302795,-12.973026275634766
12.378877639770508,0.039649248123168945,-12.922323226928711
12.406249046325684,0.03961024433374405,-12.871610641479492
12.433560371398926,0.03957167640328407,-12.820991516113281
12.460823059082031,0.03953355923295021,-12.770472526550293
12.488035202026367,0.03949589654803276,-12.720053672790527
12.515307426452637,0.03945902734994888,-12.669842720031738
12.542832374572754,0.03942355513572693,-12.620031356811523
12.569965362548828,0.03938743844628334,-12.569965362548828
12.597057342529297,0.03935178741812706,-12.519999504089355
12.624046325683594,0.03931639716029167,-12.47006893157959
12.651041984558105,0.03928161412477493,-12.420281410217285
12.677992820739746,0.039247266948223114,-12.370584487915039
12.704889297485352,0.039213329553604126,-12.320966720581055
12.731732368469238,0.03917979449033737,-12.271428108215332
12.758522033691406,0.03914666175842285,-12.221965789794922
12.785261154174805,0.039113935083150864,-12.17258071899414
12.812000274658203,0.039081767201423645,-12.123319625854492
12.838685035705566,0.039049986749887466,-12.074130058288574
12.86530876159668,0.03901857137680054,-12.025002479553223
12.891875267028809,0.038987524807453156,-11.97593879699707
12.918432235717773,0.03895699605345726,-11.926984786987305
12.944930076599121,0.03892682492733002,-11.87808895111084
12.97136402130127,0.03889699652791023,-11.82924747467041
12.997793197631836,0.03886768966913223,-11.780512809753418
13.02415657043457,0.0388387106359005,-11.731827735900879
13.050511360168457,0.038810230791568756,-11.683241844177246
13.076793670654297,0.03878205642104149,-11.634696006774902
13.103069305419922,0.038754381239414215,-11.586247444152832
13.12927532196045,0.038727011531591415,-11.537839889526367
13.155466079711914,0.03870010748505592,-11.489518165588379
13.181638717651367,0.03867366164922714,-11.441279411315918
13.207742691040039,0.03864751383662224,-11.39307689666748
13.233829498291016,0.038621820509433746,-11.344955444335938
13.259841918945312,0.03859640657901764,-11.29686164855957
13.285888671875,0.03857158496975899,-11.248889923095703
13.311867713928223,0.03854706138372421,-11.200949668884277
13.337820053100586,0.03852294757962227,-11.153076171875
13.363689422607422,0.03849907964468002,-11.105217933654785
13.389601707458496,0.03847581893205643,-11.05748176574707
13.415432929992676,0.03845280408859253,-11.009761810302734
13.441235542297363,0.03843018040060997,-10.962099075317383
13.467022895812988,0.03840798884630203,-10.914504051208496
13.492839813232422,0.038386356085538864,-10.867012023925781
13.518566131591797,0.03836493194103241,-10.819522857666016
13.54421329498291,0.03834374621510506,-10.772046089172363
13.569889068603516,0.03832310438156128,-10.724666595458984
13.595534324645996,0.03830283507704735,-10.67733383178711
13.621150970458984,0.03828294947743416,-10.630050659179688
13.64680004119873,0.03826360031962395,-10.582860946655273
13.67236042022705,0.03824446350336075,-10.535670280456543
13.69788646697998,0.038225673139095306,-10.488519668579102
13.723379135131836,0.03820723667740822,-10.441407203674316
13.7489013671875,0.03818933293223381,-10.39438247680664
13.774388313293457,0.03817176818847656,-10.347391128540039
13.79978084564209,0.03815438225865364,-10.300389289855957
13.8251953125,0.03813749551773071,-10.253463745117188
13.850643157958984,0.03812113776803017,-10.206620216369629
13.875984191894531,0.038104914128780365,-10.159753799438477
13.90135669708252,0.03808920830488205,-10.112964630126953
13.926684379577637,0.03807380795478821,-10.066197395324707
13.952045440673828,0.03805892542004585,-10.01950454711914
13.977291107177734,0.03804415091872215,-9.972780227661133
14.002569198608398,0.03802988678216934,-9.926129341125488
14.027863502502441,0.03801608458161354,-9.879536628723145
14.053122520446777,0.03800260275602341,-9.832964897155762
14.078330993652344,0.03798940032720566,-9.786402702331543
14.10350513458252,0.03797651827335358,-9.739861488342285
14.128687858581543,0.037964075803756714,-9.693368911743164
14.153904914855957,0.03795212507247925,-9.646940231323242
14.179062843322754,0.03794042766094208,-9.60051155090332
14.204181671142578,0.03792903199791908,-9.554094314575195
14.229317665100098,0.0379180833697319,-9.507725715637207
14.254406929016113,0.03790741041302681,-9.461362838745117
14.279513359069824,0.03789718449115753,-9.415045738220215
14.304569244384766,0.037887219339609146,-9.368728637695312
14.329646110534668,0.037877704948186874,-9.322457313537598
14.35473346710205,0.03786861523985863,-9.276224136352539
14.379775047302246,0.03785979375243187,-9.229990005493164
14.404829025268555,0.037851396948099136,-9.183793067932129
14.429829597473145,0.0378432497382164,-9.137588500976562
14.454849243164062,0.037835538387298584,-9.091423034667969
14.479877471923828,0.0378282368183136,-9.045287132263184
14.504858016967773,0.03782118856906891,-8.999144554138184
14.529850006103516,0.03781455382704735,-8.953030586242676
14.554777145385742,0.0378081351518631,-8.906899452209473
14.579800605773926,0.03780234232544899,-8.860845565795898
14.604756355285645,0.037796750664711,-8.814769744873047
14.629728317260742,0.03779157996177673,-8.768721580505371
14.654642105102539,0.03778662905097008,-8.722654342651367
14.679558753967285,0.03778206184506416,-8.676604270935059
14.704495429992676,0.037777915596961975,-8.63058090209961
14.729442596435547,0.03777416795492172,-8.584575653076172
14.754396438598633,0.03777080401778221,-8.53858470916748
14.77928638458252,0.03776764124631882,-8.492568016052246
14.804189682006836,0.03776488080620766,-8.446568489074707
14.829097747802734,0.03776249662041664,-8.400580406188965
14.85401439666748,0.037760499864816666,-8.35460376739502
14.878950119018555,0.03775890916585922,-8.308643341064453
14.90388011932373,0.037757668644189835,-8.262683868408203
14.92874526977539,0.03775662183761597,-8.216692924499512
14.953625679016113,0.037755969911813736,-8.1707124710083
14.978580474853516,0.03775586187839508,-8.124773979187012
15.003466606140137,0.03775594010949135,-8.078798294067383
15.028361320495605,0.03775639086961746,-8.03282642364502
15.053261756896973,0.037757210433483124,-7.986855983734131
15.078165054321289,0.037758391350507736,-7.940883636474609
15.103072166442871,0.037759929895401,-7.894908428192139
15.127985954284668,0.037761833518743515,-7.848931789398193
15.152908325195312,0.037764113396406174,-7.802953720092773
15.177825927734375,0.037766724824905396,-7.756965160369873
15.202746391296387,0.03776969015598297,-7.710968971252441
15.227681159973145,0.03777303919196129,-7.664970874786377
15.252610206604004,0.03777671605348587,-7.618958473205566
15.277541160583496,0.03778074309229851,-7.572935581207275
15.302473068237305,0.037785112857818604,-7.526899337768555
15.327412605285645,0.03778984397649765,-7.48085355758667
15.3523530960083,0.037794921547174454,-7.434792995452881
15.377289772033691,0.03780032694339752,-7.38871431350708
15.402226448059082,0.03780607506632805,-7.342618942260742
15.42724323272705,0.03781235218048096,-7.296542644500732
15.452187538146973,0.037818793207407,-7.250412940979004
15.477203369140625,0.03782574459910393,-7.204296112060547
15.502222061157227,0.037833038717508316,-7.158159255981445
15.527233123779297,0.03784065321087837,-7.111995697021484
15.552254676818848,0.03784862160682678,-7.0658135414123535
15.5772705078125,0.03785691410303116,-7.019603729248047
15.60228157043457,0.0378655269742012,-6.973366737365723
15.627368927001953,0.037874653935432434,-6.927136421203613
15.652371406555176,0.03788391128182411,-6.880840301513672
15.677460670471191,0.03789370507001877,-6.834554195404053
15.702546119689941,0.03790382295846939,-6.788236141204834
15.727707862854004,0.0379144512116909,-6.74191951751709
15.75278091430664,0.037925198674201965,-6.695533275604248
15.777931213378906,0.03793645650148392,-6.64914608001709
15.803079605102539,0.037948038429021835,-6.602724075317383
15.828226089477539,0.03795994445681572,-6.5562663078308105
15.853453636169434,0.03797236829996109,-6.509804725646973
15.878588676452637,0.037984900176525116,-6.463268756866455
15.90379810333252,0.037997934967279434,-6.41672420501709
15.92908763885498,0.03801148384809494,-6.370172500610352
15.954288482666016,0.0380251444876194,-6.323544979095459
15.979567527770996,0.03803931921720505,-6.276906967163086
16.004846572875977,0.03805381432175636,-6.230226039886475
16.030107498168945,0.03806859254837036,-6.183495044708252
16.05545425415039,0.03808389604091644,-6.136752128601074
16.080793380737305,0.0380995012819767,-6.08996057510376
16.106204986572266,0.03811560571193695,-6.043149471282959
16.131526947021484,0.03813181072473526,-5.996256351470947
16.15701675415039,0.03814874216914177,-5.949377536773682
16.18240737915039,0.038165755569934845,-5.902411937713623
16.20787811279297,0.03818327933549881,-5.855424880981445
16.23334312438965,0.03820111230015755,-5.808382987976074
16.258882522583008,0.03821943327784538,-5.761314868927002
16.284414291381836,0.03823806345462799,-5.7141900062561035
16.309932708740234,0.03825698047876358,-5.6670050621032715
16.33553123474121,0.03827640414237976,-5.6197919845581055
16.361122131347656,0.03829612582921982,-5.572518825531006
16.386709213256836,0.03831615671515465,-5.525186061859131
16.41236686706543,0.038336675614118576,-5.477818012237549
16.4381046295166,0.038357701152563095,-5.430416107177734
16.46383285522461,0.038379017263650894,-5.382949352264404
16.489545822143555,0.038400620222091675,-5.335415363311768
16.51534080505371,0.038422729820013046,-5.287843704223633
16.541120529174805,0.0384451262652874,-5.240202903747559
16.566892623901367,0.03846781328320503,-5.192493438720703
16.59283447265625,0.03849121928215027,-5.144770622253418
16.618677139282227,0.03851471096277237,-5.096949577331543
16.644596099853516,0.038538698107004166,-5.0490827560424805
16.67059326171875,0.038563188165426254,-5.0011701583862305
16.69658088684082,0.038587965071201324,-4.953182220458984
16.72255516052246,0.03861303627490997,-4.9051194190979
16.748699188232422,0.03863881528377533,-4.857032775878906
16.774736404418945,0.03866466507315636,-4.808840751647949
16.800853729248047,0.03869101405143738,-4.760595798492432
16.82704734802246,0.03871786221861839,-4.712296962738037
16.85323143005371,0.038745004683732986,-4.663917064666748
16.879491806030273,0.038772642612457275,-4.615480422973633
16.905742645263672,0.038800571113824844,-4.566960334777832
16.93207550048828,0.0388290099799633,-4.5183820724487305
16.958393096923828,0.038857731968164444,-4.469717979431152
16.984792709350586,0.038886960595846176,-4.420992374420166
17.011272430419922,0.0389166921377182,-4.3722028732299805
17.03773307800293,0.03894669935107231,-4.323323726654053
17.064281463623047,0.03897722437977791,-4.274379730224609
17.090810775756836,0.03900802880525589,-4.225343704223633
17.117416381835938,0.03903932869434357,-4.176238059997559
17.144014358520508,0.03907092660665512,-4.127040863037109
17.170686721801758,0.03910301998257637,-4.077771186828613
17.19744300842285,0.03913562372326851,-4.02842903137207
17.22418212890625,0.03916850686073303,-3.978989601135254
17.25100326538086,0.039201900362968445,-3.9294750690460205
17.277908325195312,0.039235807955265045,-3.8798842430114746
17.304798126220703,0.03926999866962433,-3.830193042755127
17.331768035888672,0.0393046960234642,-3.780421733856201
17.358722686767578,0.03933968394994736,-3.730548858642578
17.385860443115234,0.039375413209199905,-3.680614948272705
17.412878036499023,0.039411190897226334,-3.630554437637329
17.440088272094727,0.03944772481918335,-3.5804314613342285
17.467273712158203,0.03948453441262245,-3.530200242996216
17.494543075561523,0.03952185809612274,-3.4798810482025146
17.52179718017578,0.03955946862697601,-3.429452896118164
17.549236297607422,0.039597831666469574,-3.3789539337158203
17.576658248901367,0.03963647782802582,-3.328343152999878
17.604063034057617,0.03967541083693504,-3.2776193618774414
17.631549835205078,0.039714861661195755,-3.2268009185791016
17.659120559692383,0.03975483402609825,-3.1758859157562256
17.686779022216797,0.03979532793164253,-3.124873399734497
17.714521408081055,0.0398363396525383,-3.073760986328125
17.742244720458984,0.039877645671367645,-3.0225298404693604
17.770055770874023,0.039919476956129074,-2.9711966514587402
17.797950744628906,0.03996182978153229,-2.9197592735290527
17.825828552246094,0.04000448063015938,-2.8682000637054443
17.853792190551758,0.04004765301942825,-2.8165340423583984
17.8818416595459,0.04009135439991951,-2.7647600173950195
17.90997886657715,0.040135595947504044,-2.712876558303833
17.93809700012207,0.04018012061715126,-2.660865306854248
17.9663028717041,0.040225181728601456,-2.6087419986724854
17.994592666625977,0.04027077555656433,-2.556504011154175
18.022974014282227,0.040316905826330185,-2.504150629043579
18.05144500732422,0.040363579988479614,-2.4516801834106445
18.079896926879883,0.04041054844856262,-2.399075984954834
18.10843276977539,0.04045804962515831,-2.346351146697998
18.137060165405273,0.04050609841942787,-2.2935049533843994
18.1657772064209,0.04055469110608101,-2.240535020828247
18.194477081298828,0.04060358926653862,-2.187427043914795
18.223373413085938,0.04065327346324921,-2.134204864501953
18.252248764038086,0.04070325568318367,-2.080841541290283
18.281221389770508,0.0407538004219532,-2.0273492336273193
18.310279846191406,0.040804892778396606,-1.9737248420715332
18.339319229125977,0.04085628315806389,-1.9199556112289429
18.368560791015625,0.040908485651016235,-1.8660634756088257
18.39778709411621,0.040960997343063354,-1.8120237588882446
18.42709732055664,0.04101405665278435,-1.7578457593917847
18.45661735534668,0.041067935526371,-1.7035387754440308
18.486003875732422,0.04112187400460243,-1.6490696668624878
18.515600204467773,0.04117663577198982,-1.5944682359695435
18.545284271240234,0.041231948882341385,-1.5397212505340576
18.574953079223633,0.04128758981823921,-1.484818935394287
18.604827880859375,0.0413440465927124,-1.4297771453857422
18.634685516357422,0.04140083119273186,-1.3745769262313843
18.664636611938477,0.041458189487457275,-1.3192251920700073
18.694795608520508,0.041516367346048355,-1.2637276649475098
18.724824905395508,0.0415746308863163,-1.2080597877502441
18.755062103271484,0.0416337214410305,-1.152242660522461
18.785396575927734,0.04169340059161186,-1.0962666273117065
18.815832138061523,0.04175366833806038,-1.0401300191879272
18.846364974975586,0.04181452840566635,-0.9838308691978455
18.876873016357422,0.04187570884823799,-0.9273613095283508
18.90760040283203,0.04193774610757828,-0.8707315921783447
18.93830680847168,0.042000118643045425,-0.8139285445213318
18.969114303588867,0.04206309840083122,-0.7569561004638672
19.000141143798828,0.042126934975385666,-0.6998166441917419
19.031147003173828,0.04219111427664757,-0.6424990296363831
19.062253952026367,0.04225589707493782,-0.5850061774253845
19.09358024597168,0.04232155531644821,-0.5273393392562866
19.12489128112793,0.04238756373524666,-0.4694896936416626
19.156301498413086,0.04245418310165405,-0.411458820104599
19.187814712524414,0.04252142086625099,-0.35324475169181824
19.219430923461914,0.042589277029037476,-0.29484549164772034
19.251150131225586,0.0426577627658844,-0.23625901341438293
19.282976150512695,0.042726874351501465,-0.17748330533504486
19.314903259277344,0.04279660806059837,-0.11851624399423599
19.346933364868164,0.04286697879433632,-0.05935583636164665
19.379074096679688,0.0429379865527153,-1.1865868564683944e-15
19.411317825317383,0.04300963133573532,0.0595533661544323
19.44367027282715,0.04308192431926727,0.11930636316537857
19.476123809814453,0.04315485060214996,0.17926107347011566
19.508691787719727,0.04322843253612518,0.23941968381404877
19.541364669799805,0.04330267012119293,0.2997843027114868
19.57427215576172,0.043377835303545,0.36035940051078796
19.607168197631836,0.0434533916413784,0.4211429953575134
19.640167236328125,0.04352959990501404,0.48213908076286316
19.673276901245117,0.0436064675450325,0.5433498024940491
19.706628799438477,0.043684303760528564,0.6047815680503845
19.739959716796875,0.04376251623034477,0.6664288640022278
19.773540496826172,0.043841708451509476,0.7283025979995728
19.80710220336914,0.04392129182815552,0.7903956770896912
19.84090232849121,0.04400183632969856,0.8527202010154724
19.87468910217285,0.04408278688788414,0.9152679443359375
19.908721923828125,0.04416472092270851,0.9780527949333191
19.942873001098633,0.04424735903739929,1.0410716533660889
19.977136611938477,0.04433069005608559,1.1043264865875244
20.011518478393555,0.04441472515463829,1.167819857597351
20.046018600463867,0.0444994755089283,1.2315542697906494
20.080636978149414,0.044584933668375015,1.2955321073532104
20.115375518798828,0.04467111453413963,1.3597558736801147
20.150367736816406,0.04475831612944603,1.4242373704910278
20.185346603393555,0.04484594985842705,1.48896062374115
20.220579147338867,0.044934604316949844,1.5539473295211792
20.255935668945312,0.04502400383353233,1.6191908121109009
20.291414260864258,0.04511414095759392,1.6846935749053955
20.3270206451416,0.04520503059029579,1.7504583597183228
20.362743377685547,0.04529665783047676,1.8164869546890259
20.398597717285156,0.045389045029878616,1.8827828168869019
20.434711456298828,0.04548249766230583,1.9493613243103027
20.470813751220703,0.04557640478014946,2.0161991119384766
20.507186889648438,0.04567140340805054,2.083326578140259
20.543685913085938,0.0457671694457531,2.1507322788238525
20.5803165435791,0.04586372151970863,2.2184195518493652
20.617212295532227,0.04596135765314102,2.2864058017730713
20.654102325439453,0.04605948552489281,2.3546640872955322
20.691265106201172,0.046158719807863235,2.4232285022735596
20.72856330871582,0.04625876620411873,2.49208664894104
20.7659969329834,0.04635962098836899,2.561241388320923
20.80355453491211,0.04646126553416252,2.6306936740875244
20.841400146484375,0.04656407609581947,2.700468063354492
20.87938117980957,0.04666770249605179,2.770548105239868
20.91750144958496,0.04677216708660126,2.8409371376037598
20.95575714111328,0.046877458691596985,2.911637783050537
20.99415397644043,0.04698359966278076,2.9826536178588867
21.0328369140625,0.04709091782569885,3.0540084838867188
21.07166290283203,0.04719909653067589,3.125685930252075
21.110628128051758,0.04730812460184097,3.197687864303589
21.149738311767578,0.047418028116226196,3.2700183391571045
21.18914222717285,0.04752914234995842,3.3427040576934814
21.22869110107422,0.04764113575220108,3.4157252311706543
21.268388748168945,0.04775402322411537,3.4890859127044678
21.308385848999023,0.047868143767118454,3.5628139972686768
21.348377227783203,0.047982823103666306,3.6368625164031982
21.388675689697266,0.048098765313625336,3.711287260055542
21.429275512695312,0.04821595922112465,3.7860918045043945
21.46986961364746,0.04833372309803963,3.8612258434295654
21.510778427124023,0.04845277965068817,3.9367496967315674
21.551836013793945,0.04857276380062103,4.012637138366699
21.59320831298828,0.048694051802158356,4.08892297744751
21.634737014770508,0.048816293478012085,4.165581703186035
21.676427841186523,0.048939500004053116,4.242617607116699
21.718273162841797,0.04906366765499115,4.320033073425293
21.760438919067383,0.04918917641043663,4.397864818572998
21.802764892578125,0.04931566119194031,4.4760847091674805
21.845422744750977,0.04944352060556412,4.554731845855713
21.888242721557617,0.049572382122278214,4.633776664733887
21.931232452392578,0.04970226064324379,4.713222980499268
21.974550247192383,0.049833521246910095,4.793109893798828
22.018037796020508,0.049965813755989075,4.873407363891602
22.06169891357422,0.05009915307164192,4.95412015914917
22.105531692504883,0.05023353174328804,5.035251140594482
22.149860382080078,0.05036970600485802,5.116879463195801
22.194204330444336,0.050506576895713806,5.198899269104004
22.238887786865234,0.0506448969244957,5.2813897132873535
22.28375244140625,0.05078430846333504,5.364319324493408
22.328960418701172,0.05092518404126167,5.447729587554932
22.37434959411621,0.05106716975569725,5.531588077545166
22.419921875,0.05121026560664177,5.6158976554870605
22.46584701538086,0.051354873925447464,5.700706958770752
22.512128829956055,0.05150100588798523,5.786022186279297
22.558597564697266,0.05164828151464462,5.871804714202881
22.605262756347656,0.05179672688245773,5.958061218261719
22.652294158935547,0.051946744322776794,6.04484224319458
22.699522018432617,0.05209794268012047,6.132106781005859
22.746946334838867,0.05225033685564995,6.219860076904297
22.79473876953125,0.05240432545542717,6.3081536293029785
22.8429012298584,0.05255992338061333,6.396994590759277
22.89126968383789,0.052716754376888275,6.486342430114746
22.940013885498047,0.05287522077560425,6.5762505531311035
22.988964080810547,0.0530349425971508,6.666675567626953
23.03812026977539,0.053195927292108536,6.757623672485352
23.087663650512695,0.053358592092990875,6.849152088165283
23.137590408325195,0.05352294445037842,6.941266059875488
23.187740325927734,0.053688619285821915,7.033924102783203
23.23829460144043,0.05385604873299599,7.127187252044678
23.28907012939453,0.05402481183409691,7.221004962921143
23.34006118774414,0.05419490486383438,7.315380096435547
23.391639709472656,0.054367199540138245,7.410436630249023
23.443443298339844,0.05454087257385254,7.506067276000977
23.495473861694336,0.054715923964977264,7.602277755737305
23.547914505004883,0.05489279702305794,7.699132919311523
23.600770950317383,0.05507151037454605,7.7966413497924805
23.65386199951172,0.055251654237508774,7.89475154876709
-5.404023170471191,0.036162495613098145,15.400494575500488
-5.449650287628174,0.03615191578865051,15.379341125488281
-5.495242595672607,0.036141619086265564,15.358174324035645
-5.540826320648193,0.036131780594587326,15.337066650390625
-5.58636474609375,0.0361221544444561,15.315914154052734
-5.63188362121582,0.03611290082335472,15.294782638549805
-5.677366733551025,0.036103904247283936,15.273628234863281
-5.722818851470947,0.03609520196914673,15.252459526062012
-5.768268585205078,0.03608695790171623,15.231352806091309
-5.813660144805908,0.03607882931828499,15.210156440734863
-5.859075546264648,0.03607131168246269,15.189082145690918
-5.904420852661133,0.03606381639838219,15.16788387298584
-5.94980001449585,0.03605698421597481,15.146827697753906
-5.9951701164245605,0.03605053946375847,15.125799179077148
-6.040517807006836,0.0360444001853466,15.104761123657227
-6.085868835449219,0.036038704216480255,15.083775520324707
-6.131171226501465,0.03603314980864525,15.062710762023926
-6.17648458480835,0.03602807596325874,15.041711807250977
-6.221810817718506,0.036023493856191635,15.020780563354492
-6.267122745513916,0.036019228398799896,14.999845504760742
-6.312431335449219,0.0360153429210186,14.97893238067627
-6.357690811157227,0.03601157292723656,14.957929611206055
-6.402934551239014,0.03600810468196869,14.936915397644043
-6.448163986206055,0.036004941910505295,14.915891647338867
-6.480557441711426,0.035930994898080826,14.86544418334961
-6.4712700843811035,0.03562893345952034,14.72068977355957
-6.444860458374023,0.03523777425289154,14.539372444152832
-6.418459892272949,0.034852370619773865,14.36072826385498
-6.3929219245910645,0.034477200359106064,14.18659496307373
-6.3678107261657715,0.03410971164703369,14.015911102294922
-6.343229293823242,0.03375029191374779,13.848827362060547
-6.318973541259766,0.03339768946170807,13.684821128845215
-6.3216552734375,0.0331914909183979,13.581000328063965
-6.389768600463867,0.033329594880342484,13.617969512939453
-6.458399295806885,0.03346890211105347,13.65513801574707
-6.527606964111328,0.033609695732593536,13.692619323730469
-6.597402572631836,0.03375201299786568,13.730422973632812
-6.667805194854736,0.03389592468738556,13.768574714660645
-6.7388129234313965,0.0340413935482502,13.807056427001953
-6.810431957244873,0.03418843820691109,13.845868110656738
-6.8826704025268555,0.03433706983923912,13.885009765625
-7.288747787475586,0.03613944724202156,14.591551780700684
-7.333749771118164,0.03614077717065811,14.569658279418945
-7.3787617683410645,0.03614248335361481,14.547775268554688
-7.423802852630615,0.03614464029669762,14.5259370803833
-7.468877792358398,0.03614727780222893,14.504151344299316
-7.513958930969238,0.0361502543091774,14.48236083984375
-7.559047698974609,0.03615356609225273,14.460565567016602
-7.604148864746094,0.036157239228487015,14.438773155212402
-7.649262428283691,0.03616126626729965,14.41698169708252
-7.694352626800537,0.036165475845336914,14.395121574401855
-7.739512920379639,0.03617030009627342,14.37336540222168
-7.801743507385254,0.03625473752617836,14.383050918579102
-7.883031368255615,0.03642662614583969,14.427125930786133
-7.965075492858887,0.03660041093826294,14.471587181091309
-8.0479097366333,0.03677622601389885,14.516480445861816
-8.13154125213623,0.03695406764745712,14.561800003051758
-8.215967178344727,0.03713390231132507,14.607527732849121
-8.301213264465332,0.03731582313776016,14.653691291809082
-1.212221384048462,0.0033988887444138527,0.9400569796562195
-1.2871315479278564,0.0036003771238029003,0.9918400049209595
-1.3339459896087646,0.003722543828189373,1.021407127380371
-1.3657094240188599,0.003802269697189331,1.039097547531128
-1.3988245725631714,0.003885413985699415,1.0575330257415771
-1.4317538738250732,0.003967695403844118,1.0755407810211182
-1.461601734161377,0.004041115753352642,1.0909641981124878
-1.4924774169921875,0.004117073956876993,1.1068966388702393
-1.5246920585632324,0.004196410998702049,1.1235544681549072
-1.5579618215560913,0.004278327338397503,1.1407124996185303
-1.5926952362060547,0.0043639265932142735,1.1586546897888184
-1.6287519931793213,0.004452803637832403,1.1772607564926147
-1.6663150787353516,0.004545438103377819,1.1966454982757568
-1.7054765224456787,0.004642058629542589,1.2168554067611694
-1.7463303804397583,0.004742897115647793,1.237937092781067
-1.7888730764389038,0.004847919102758169,1.2598665952682495
-1.833498477935791,0.004958166275173426,1.282898187637329
-1.8800896406173706,0.005073291715234518,1.3069244623184204
-1.9290771484375,0.005194427911192179,1.332218050956726
-1.9801878929138184,0.005320805590599775,1.3585615158081055
-2.0339910984039307,0.005453921854496002,1.3863164186477661
-2.09031343460083,0.005593274254351854,1.4153317213058472
-2.149946689605713,0.005740942899137735,1.4461089372634888
-2.2124686241149902,0.005895754788070917,1.478324294090271
-2.2785489559173584,0.006059451960027218,1.5123869180679321
-2.348454236984253,0.006232691463083029,1.5484284162521362
-2.4222986698150635,0.006415723357349634,1.58647620677948
-2.494713306427002,0.006594302598387003,1.6229890584945679
-2.517484426498413,0.006641268730163574,1.6268326044082642
-2.521728277206421,0.006639333441853523,1.6186294555664062
-2.525972843170166,0.006637468934059143,1.6104329824447632
-2.5302083492279053,0.006635650992393494,1.6022368669509888
-2.5344467163085938,0.006633909419178963,1.594048261642456
-2.5386738777160645,0.00663220789283514,1.5858583450317383
-2.542917251586914,0.006630617193877697,1.5776838064193726
-2.5471391677856445,0.006629038602113724,1.5695011615753174
-2.551373243331909,0.006627560593187809,1.561331033706665
-2.5555975437164307,0.006626124028116465,1.553159475326538
-2.5598225593566895,0.006624758243560791,1.5449931621551514
-2.564049005508423,0.006623462773859501,1.5368318557739258
-2.5682661533355713,0.006622210144996643,1.5286691188812256
-2.572495460510254,0.0066210562363266945,1.5205175876617432
-2.5767152309417725,0.006619943771511316,1.5123639106750488
-2.580923557281494,0.006618868093937635,1.5042071342468262
-2.5851447582244873,0.006617891136556864,1.496061086654663
-2.589355230331421,0.006616952363401651,1.4879118204116821
-2.593566656112671,0.0066160825081169605,1.4797662496566772
-2.597778797149658,0.006615279242396355,1.4716235399246216
-2.601991653442383,0.0066145421005785465,1.4634836912155151
-2.6062068939208984,0.006613876670598984,1.4553475379943848
-2.610421657562256,0.006613273173570633,1.4472129344940186
-2.614623785018921,0.006612703204154968,1.4390734434127808
-2.618828773498535,0.006612204015254974,1.4309370517730713
-2.6230456829071045,0.006611798424273729,1.4228086471557617
-2.6272504329681396,0.006611425895243883,1.4146747589111328
-2.6314563751220703,0.006611119490116835,1.4065426588058472
-2.635662317276001,0.00661087641492486,1.398411512374878
-2.6398682594299316,0.006610696204006672,1.3902809619903564
-2.644073724746704,0.006610577926039696,1.382150650024414
-2.6482818126678467,0.006610528565943241,1.3740218877792358
-2.6524884700775146,0.006610537879168987,1.3658925294876099
-2.6566827297210693,0.006610577926039696,1.3577566146850586
-2.660888671875,0.006610709708184004,1.3496265411376953
-2.665095567703247,0.006610904820263386,1.3414963483810425
-2.669302463531494,0.006611162330955267,1.333365559577942
-2.6735081672668457,0.006611477583646774,1.3252332210540771
-2.6777141094207764,0.0066118547692894936,1.3170998096466064
-2.6819205284118652,0.006612294353544712,1.3089655637741089
-2.686126470565796,0.006612793076783419,1.300829529762268
-2.6903445720672607,0.0066133830696344376,1.292697787284851
-2.6945486068725586,0.006613998673856258,1.2845573425292969
-2.698753595352173,0.006614676211029291,1.2764153480529785
-2.7029709815979004,0.0066154454834759235,1.2682771682739258
-2.70717453956604,0.0066162399016320705,1.2601299285888672
-2.7113897800445557,0.006617123726755381,1.2519856691360474
-2.715604543685913,0.006618065759539604,1.2438384294509888
-2.7198195457458496,0.0066190678626298904,1.2356882095336914
-2.724033832550049,0.0066201272420585155,1.2275346517562866
-2.7282462120056152,0.006621241569519043,1.219376802444458
-2.7324717044830322,0.006622447166591883,1.21122145652771
-2.7366950511932373,0.0066237058490514755,1.2030612230300903
-2.7409064769744873,0.006624995265156031,1.1948920488357544
-2.745143175125122,0.006626404356211424,1.1867297887802124
-2.7493653297424316,0.0066278367303311825,1.17855703830719
-2.7535858154296875,0.006629324052482843,1.1703790426254272
-2.757819175720215,0.00663090031594038,1.162202000617981
-2.7620508670806885,0.006632531061768532,1.1540193557739258
-2.766282081604004,0.006634218618273735,1.14583158493042
-2.7705259323120117,0.006635994650423527,1.137643814086914
-2.7747535705566406,0.006637789774686098,1.1294440031051636
-2.77899432182312,0.00663967477157712,1.121244192123413
-2.7832329273223877,0.00664161192253232,1.1130377054214478
-2.787484645843506,0.006643637549132109,1.1048305034637451
-2.7917354106903076,0.006645719055086374,1.0966168642044067
-2.7959835529327393,0.006647851783782244,1.0883959531784058
-2.800230026245117,0.006650037597864866,1.0801678895950317
-2.804487705230713,0.006652307230979204,1.0719376802444458
-2.808743476867676,0.006654629483819008,1.063699722290039
-2.8129971027374268,0.006657004822045565,1.0554542541503906
-2.817263126373291,0.006659465841948986,1.0472060441970825
-2.821528196334839,0.0066619813442230225,1.0389502048492432
-2.8144280910491943,0.006637750193476677,1.0265415906906128
-2.767460823059082,0.006519714370369911,0.9998013377189636
-2.706172466278076,0.006368299480527639,0.968284010887146
-2.647730588912964,0.006223968230187893,0.9382200837135315
-2.591731309890747,0.006085744593292475,0.9094367623329163
-2.544506549835205,0.0059684570878744125,0.8841073513031006
-2.5590436458587646,0.005996192339807749,0.8803688883781433
-2.577686071395874,0.006033533718436956,0.8779473304748535
-2.5963711738586426,0.006070954725146294,0.8754310607910156
-2.6142430305480957,0.006106455344706774,0.8725339770317078
-2.631711483001709,0.006140999961644411,0.8694000244140625
-2.649411678314209,0.006176072172820568,0.8662411570549011
-2.6672840118408203,0.006211533211171627,0.8630357384681702
-2.685338020324707,0.006247404497116804,0.8597853183746338
-2.7020318508148193,0.006280103232711554,0.8559997081756592
-2.7183942794799805,0.00631202757358551,0.8520151972770691
-2.1276090145111084,0.004935520235449076,0.6596860289573669
-2.0396182537078857,0.004726929124444723,0.6255511045455933
-2.0066168308258057,0.004646096844226122,0.6087005734443665
-1.979192852973938,0.004578360356390476,0.593756914138794
-1.9692846536636353,0.004551272839307785,0.5842050313949585
-1.9722416400909424,0.004553983453661203,0.5785049200057983
-1.9751962423324585,0.004556726664304733,0.5727962851524353
-1.9781495332717896,0.004559504799544811,0.5670793056488037
-1.98112154006958,0.0045623634941875935,0.5613595247268677
-1.9840810298919678,0.004565231967717409,0.5556280016899109
-1.9870493412017822,0.004568158648908138,0.5498906373977661
-1.9900261163711548,0.004571142606437206,0.5441470742225647
-1.993001103401184,0.004574160557240248,0.5383943915367126
-1.9959851503372192,0.00457723718136549,0.5326354503631592
-1.9989670515060425,0.004580347333103418,0.5268670916557312
-2.001957416534424,0.004583514761179686,0.5210919380187988
-2.0049569606781006,0.004586740862578154,0.5153100490570068
-2.0079538822174072,0.004589999094605446,0.5095181465148926
-1.8209048509597778,0.004159203730523586,0.45611292123794556
-1.5837124586105347,0.003614661982282996,0.39153966307640076
-1.5665618181228638,0.003572824178263545,0.38220342993736267
-1.5536370277404785,0.0035407133400440216,0.37400364875793457
-1.5423762798309326,0.0035124728456139565,0.3662903904914856
-1.5312762260437012,0.00348467193543911,0.35869503021240234
-1.5203739404678345,0.0034573934972286224,0.3512243330478668
-1.5121760368347168,0.003436331870034337,0.3444470763206482
-1.505374789237976,0.003418503561988473,0.338043212890625
-1.498831033706665,0.0034013164695352316,0.3317468464374542
-1.4947751760482788,0.0033898265101015568,0.3260417878627777
-1.4913133382797241,0.0033797300420701504,0.32049691677093506
-1.487863540649414,0.0033697057515382767,0.3149831295013428
-1.4844551086425781,0.0033598202280700207,0.30950626730918884
-1.4810479879379272,0.0033499817363917828,0.30405759811401367
-1.4776705503463745,0.003340254072099924,0.298642635345459
-1.4743084907531738,0.0033306048717349768,0.2932581901550293
-1.4709614515304565,0.0033210325054824352,0.28790387511253357
-1.4676424264907837,0.003311566077172756,0.2825818955898285
-1.4643381834030151,0.003302175085991621,0.27728933095932007
-1.4610611200332642,0.0032928879372775555,0.27202826738357544
-1.4578180313110352,0.003283718368038535,0.2667994797229767
-1.4552289247512817,0.0032760624308139086,0.2617141008377075
-1.4536265134811401,0.003270665882155299,0.2568245232105255
-1.4521665573120117,0.003265626262873411,0.25197479128837585
-1.450715184211731,0.003260641824454069,0.24714064598083496
-1.449266791343689,0.0032557002268731594,0.2423209398984909
-1.4480772018432617,0.0032513753976672888,0.2375575304031372
-1.447268009185791,0.0032479390501976013,0.23286738991737366
-1.4465930461883545,0.0032448379788547754,0.2282080352306366
-1.4459189176559448,0.0032417718321084976,0.22355744242668152
-1.4452455043792725,0.0032387408427894115,0.21891550719738007
-1.4445751905441284,0.0032357503660023212,0.21428248286247253
-1.4439055919647217,0.0032327945809811354,0.20965789258480072
-1.4432365894317627,0.0032298730220645666,0.20504158735275269
-1.4425681829452515,0.0032269859220832586,0.20043350756168365
-1.441902995109558,0.003224138868972659,0.19583390653133392
-1.441235899925232,0.0032213199883699417,0.19124193489551544
-1.4405715465545654,0.0032185399904847145,0.18665815889835358
-1.4399081468582153,0.0032157946843653917,0.18208223581314087
-1.4393812417984009,0.003213386284187436,0.17753073573112488
-1.4393384456634521,0.0032120905816555023,0.1730441451072693
-1.4395180940628052,0.0032113222405314445,0.16858716309070587
-1.4397757053375244,0.003210758324712515,0.16414116322994232
-1.4400441646575928,0.0032102493569254875,0.15969789028167725
-1.4403469562530518,0.0032098472584038973,0.15525969862937927
-1.440916657447815,0.003210070077329874,0.15085053443908691
-1.441543698310852,0.0032104509882628918,0.14644652605056763
-1.4421710968017578,0.0032108628656715155,0.14204145967960358
-1.44279944896698,0.0032113066408783197,0.13763529062271118
-1.4434281587600708,0.0032117809168994427,0.1332278698682785
-1.4440572261810303,0.0032122861593961716,0.12881913781166077
-1.444687008857727,0.0032128228340297937,0.12440900504589081
-1.4453171491622925,0.003213390475139022,0.11999737471342087
-1.4459452629089355,0.0032139834947884083,0.11558396369218826
-1.4465765953063965,0.0032146135345101357,0.11116910725831985
-1.4472057819366455,0.0032152687199413776,0.10675230622291565
-1.4478358030319214,0.0032159558031708,0.10233370214700699
-1.448466181755066,0.003216673620045185,0.09791317582130432
-1.4490971565246582,0.0032174228690564632,0.09349065274000168
-1.4497284889221191,0.00321820261888206,0.0890660285949707
-1.4503604173660278,0.00321901380084455,0.08463923633098602
-1.4509929418563843,0.0032198564149439335,0.08021017909049988
-1.4516234397888184,0.0032207246404141188,0.07577864825725555
-1.452345371246338,0.0032218254636973143,0.07134915143251419
-1.453397274017334,0.0032236881088465452,0.06693176180124283
-1.454454779624939,0.003225593362003565,0.06250940263271332
-1.455548882484436,0.0032276094425469637,0.0580831877887249
-1.456926703453064,0.0032302842009812593,0.053661786019802094
-1.458341360092163,0.0032330709509551525,0.04923418164253235
-1.4597587585449219,0.003235893091186881,0.04479889199137688
-1.4611787796020508,0.003238751320168376,0.04035582020878792
-1.4626015424728394,0.0032416454050689936,0.03590485081076622
-1.4640324115753174,0.0032445876859128475,0.031446002423763275
-1.4654605388641357,0.003247553948312998,0.026978906244039536
-1.4668916463851929,0.0032505569979548454,0.022503601387143135
-1.4683252573013306,0.0032535961363464594,0.018019966781139374
-1.469761610031128,0.0032566713634878397,0.013527898117899895
-1.4712008237838745,0.0032597838435322046,0.009027289226651192
-1.4726427793502808,0.0032629326451569796,0.004518025554716587
-1.4740873575210571,0.003266118001192808,2.7077650149315974e-16
-1.4755347967147827,0.0032693406101316214,-0.004526898264884949
-1.476984977722168,0.003272600006312132,-0.009062780067324638
-1.4784380197525024,0.003275896655395627,-0.013607757166028023
-1.4798939228057861,0.0032792305573821068,-0.018161941319704056
-1.48135244846344,0.0032826014794409275,-0.02272544428706169
-1.4828139543533325,0.00328601012006402,-0.027298379689455032
-1.4842839241027832,0.003289469052106142,-0.03188098222017288
-1.4857521057128906,0.0032929552253335714,-0.036473166197538376
-1.487295389175415,0.0032966395374387503,-0.04107712581753731
-1.4890916347503662,0.003300916403532028,-0.0456991009414196
-1.490898847579956,0.003305249148979783,-0.050333332270383835
-1.4927083253860474,0.003309618914499879,-0.05497970059514046
-1.4947266578674316,0.00331448414362967,-0.05964656174182892
-1.4968245029449463,0.003319558221846819,-0.06433036923408508
-1.4989365339279175,0.003324696095660329,-0.06902892887592316
-1.501054048538208,0.003329878905788064,-0.07374206185340881
-1.5031777620315552,0.0033351085148751736,-0.07846992462873459
-1.5052989721298218,0.0033403655979782343,-0.08321219682693481
-1.5074344873428345,0.003345687408000231,-0.08796992897987366
-1.5095845460891724,0.0033510751090943813,-0.09274336695671082
-1.5117321014404297,0.003356490982696414,-0.09753163903951645
-1.5138853788375854,0.0033619531895965338,-0.1023353785276413
-1.5160452127456665,0.00336746359243989,-0.10715477913618088
-1.518218994140625,0.0033730394206941128,-0.1119905561208725
-1.5203993320465088,0.003378664143383503,-0.1168423742055893
-1.5225857496261597,0.003384336596354842,-0.12171034514904022
-1.524769902229309,0.003390038851648569,-0.1265939325094223
-1.5269768238067627,0.003395826555788517,-0.1314953863620758
-1.529181957244873,0.003401645226404071,-0.1364128142595291
-1.53139328956604,0.003407512791454792,-0.1413470208644867
-1.5336194038391113,0.0034134485758841038,-0.14629901945590973
-1.5358434915542603,0.003419415792450309,-0.1512673795223236
-1.538082242012024,0.003425451461225748,-0.1562538892030716
-1.5403276681900024,0.003431537887081504,-0.16125793755054474
-1.54259192943573,0.0034377023112028837,-0.16628101468086243
-1.5449730157852173,0.0034441640600562096,-0.17133428156375885
-1.5475317239761353,0.0034510584082454443,-0.17642584443092346
-1.5501086711883545,0.0034580309875309467,-0.18153880536556244
-1.5526992082595825,0.0034650713205337524,-0.18667291104793549
-1.5553299188613892,0.0034722392447292805,-0.19183164834976196
-1.5580099821090698,0.003479555482044816,-0.19701668620109558
-1.560712456703186,0.0034869599621742964,-0.20222508907318115
-1.563421607017517,0.0034944184590131044,-0.2074551284313202
-1.566149115562439,0.0035019568167626858,-0.21270853281021118
-1.5689146518707275,0.0035096195060759783,-0.21798835694789886
-1.571703314781189,0.003517373465001583,-0.22329294681549072
-1.5745351314544678,0.0035252640955150127,-0.22862555086612701
-1.5774919986724854,0.00353347510099411,-0.2339988350868225
-1.580575942993164,0.0035420116037130356,-0.23941440880298615
-1.583672046661377,0.0035506163258105516,-0.2448558211326599
-1.5867921113967896,0.0035593167413026094,-0.25032520294189453
-1.5899238586425781,0.003568085376173258,-0.2558209300041199
-1.593068242073059,0.0035769245587289333,-0.2613433599472046
-1.5962368249893188,0.003585860598832369,-0.26689469814300537
-1.5994056463241577,0.0035948401782661676,-0.27247124910354614
-1.6025991439819336,0.003603918245062232,-0.2780773341655731
-1.6058170795440674,0.0036130952648818493,-0.28371334075927734
-1.6090359687805176,0.0036223181523382664,-0.289375364780426
-1.6122795343399048,0.0036316411569714546,-0.2950679361820221
-1.6155362129211426,0.0036410384345799685,-0.3007892668247223
-1.6188185214996338,0.00365053815767169,-0.30654194951057434
-1.6221134662628174,0.0036601119209080935,-0.3123239278793335
-1.6254220008850098,0.0036697625182569027,-0.31813564896583557
-1.6287940740585327,0.0036796024069190025,-0.32398727536201477
