-6.340919393848556851e+00,-1.851390764127528732e-01,-9.205758284542637782e+00
-6.340889353107590054e+00,-1.852879390130794113e-01,-9.219279151175099329e+00
-6.340859550785202359e+00,-1.854425683627879684e-01,-9.232828538630085902e+00
-6.340829510044235562e+00,-1.856029942642009323e-01,-9.246407489988881068e+00
-6.340799707721847867e+00,-1.857692465196406906e-01,-9.260017137739735560e+00
-6.340769905399460171e+00,-1.859413549314296310e-01,-9.273658584568577723e+00
-6.340740103077072476e+00,-1.861193493018901413e-01,-9.287333052370625452e+00
-6.340710062336105679e+00,-1.863032594333446090e-01,-9.301041584227162318e+00
-6.340679544757980679e+00,-1.864931002269542282e-01,-9.314785342428761439e+00
-6.340649742435592984e+00,-1.866889908920085495e-01,-9.328565668079930262e+00
-6.340618986438888882e+00,-1.868908420215404098e-01,-9.342383455250340418e+00
-6.340588707279342984e+00,-1.870988175283229416e-01,-9.356240223858433680e+00
-6.340558189701217984e+00,-1.873128876100337570e-01,-9.370136987183171229e+00
-6.340527672123092984e+00,-1.875331267724788253e-01,-9.384075056526738123e+00
-6.340497392963547085e+00,-1.877595797191417282e-01,-9.398055683586674647e+00
-6.340466636966842984e+00,-1.879922762523448532e-01,-9.412080060455876307e+00
-6.340435404132980679e+00,-1.882312163720882003e-01,-9.426149260017949061e+00
-6.340404886554855679e+00,-1.884765788923060958e-01,-9.440265070412236170e+00
-6.340373892139572476e+00,-1.887282893071925705e-01,-9.454428326103764491e+00
-6.340342897724289273e+00,-1.889864668260371749e-01,-9.468640576813298182e+00
-6.340311664890426968e+00,-1.892511263500011032e-01,-9.482903074238377528e+00
-6.340279955219406460e+00,-1.895223274837291305e-01,-9.497217010471898035e+00
-6.340248722385544156e+00,-1.898001745353496139e-01,-9.511584173653202967e+00
-6.340217251133102749e+00,-1.900846824060237472e-01,-9.526005517456608729e+00
-6.340185541462082242e+00,-1.903759107003963058e-01,-9.540482710812169032e+00
-6.340153831791061734e+00,-1.906739488254344528e-01,-9.555017005417424159e+00
-6.340121883701462124e+00,-1.909788116822993820e-01,-9.569609950993138270e+00
-6.340089697193283413e+00,-1.912906035791194503e-01,-9.584262918446141200e+00
-6.340057272266525601e+00,-1.916093692193782394e-01,-9.598977338287907557e+00
-6.340025324176925992e+00,-1.919352278123652999e-01,-9.613755058262425379e+00
-6.339992899250168179e+00,-1.922681942592418258e-01,-9.628597330067234950e+00
-6.339960474323410367e+00,-1.926083579669749801e-01,-9.643505643818455653e+00
-6.339927572559494351e+00,-1.929557636390483444e-01,-9.658481608841496424e+00
-6.339895147632736538e+00,-1.933105751882350509e-01,-9.673527072880345301e+00
-6.339861769031662320e+00,-1.936727479110515182e-01,-9.688643287632542567e+00
-6.339828628849167202e+00,-1.940424606214320724e-01,-9.703832100842076258e+00
-6.339795250248092984e+00,-1.944197580228602951e-01,-9.719095181439000086e+00
-6.339762110065597867e+00,-1.948047444234645431e-01,-9.734434317562657313e+00
-6.339728254627365445e+00,-1.951974645267283981e-01,-9.749850999329167323e+00
-6.339694160770553921e+00,-1.955980226407802169e-01,-9.765347134087162928e+00
-7.315667290043014859e+00,-2.667307868610179211e-01,-1.020641268393762680e+01
-6.344438690494675015e+00,-2.344347402463710373e-01,-7.432792436096745448e+00
-6.344396013569015835e+00,-2.336545601497447555e-01,-7.451634179565983729e+00
-6.344354051899093960e+00,-2.328878954063212936e-01,-7.470325123283940272e+00
-6.344312328647751187e+00,-2.321344479928767746e-01,-7.488868724320012049e+00
-6.344270843814987515e+00,-2.313940539966380661e-01,-7.507268201325016932e+00
-6.344230074237961148e+00,-2.306665048013484542e-01,-7.525526176903325037e+00
-6.344189543079513882e+00,-2.299515768895900314e-01,-7.543645869705754237e+00
-6.344148773502487515e+00,-2.292490318427836959e-01,-7.561630617592411951e+00
-6.344108242344040249e+00,-2.285587355504787033e-01,-7.579483043167668299e+00
-6.344068664859909390e+00,-2.278805240999019210e-01,-7.597205411408024744e+00
-6.344029087375778531e+00,-2.272141739736354416e-01,-7.614800940964299159e+00
-6.343989748310226773e+00,-2.265595361600673263e-01,-7.632272016022282557e+00
-6.343950409244675015e+00,-2.259164020429408615e-01,-7.649621736023503260e+00
-6.343912023853439663e+00,-2.252846524129664962e-01,-7.666852008316594080e+00
-6.343873638462204312e+00,-2.246641084562099044e-01,-7.683965693924504237e+00
-6.343835491489548062e+00,-2.240545764575755661e-01,-7.700965415451603846e+00
-6.343797344516891812e+00,-2.234559223066127365e-01,-7.717853318665104823e+00
-6.343759912799972867e+00,-2.228680267940318649e-01,-7.734631787750798182e+00
-6.343722004245895718e+00,-2.222906664024150436e-01,-7.751303326103764491e+00
-6.343685049366134976e+00,-2.217237815271174972e-01,-7.767869841072636561e+00
-6.343648094486374234e+00,-2.211671933542048996e-01,-7.784333836052494959e+00
-6.343611378025192593e+00,-2.206207677732265060e-01,-7.800697456810551600e+00
-6.343574899982590054e+00,-2.200843557725703781e-01,-7.816962849114018397e+00
-6.343538183521408413e+00,-2.195578381429469650e-01,-7.833132039520817713e+00
-6.343502182315964077e+00,-2.190411254773891037e-01,-7.849207054588871912e+00
-6.343466419529098843e+00,-2.185340389619624679e-01,-7.865189980480748133e+00
-6.343430418323654507e+00,-2.180364742885387008e-01,-7.881082903359013514e+00
-6.343395370792526577e+00,-2.175483718524730270e-01,-7.896887372944432215e+00
-6.343359846424240445e+00,-2.170695081363475387e-01,-7.912605833027440028e+00
-6.343324798893112515e+00,-2.165998682390010421e-01,-7.928239773724156336e+00
-6.343290466617721890e+00,-2.161393329511439865e-01,-7.943790983173924403e+00
-6.343255895923752163e+00,-2.156877532611644332e-01,-7.959261726353245692e+00
-6.343220848392624234e+00,-2.152449801574504440e-01,-7.974653672192173914e+00
-6.343186992954391812e+00,-2.148110583434856002e-01,-7.989968072388249354e+00
-6.343152899097580288e+00,-2.143857792030131881e-01,-8.005207191917973475e+00
-6.343118805240768765e+00,-2.139690682302272384e-01,-8.020372580502110438e+00
-6.343084949802536343e+00,-2.135608211169993942e-01,-8.035465907070713953e+00
-6.343051571201462124e+00,-2.131610080610072677e-01,-8.050488602135258631e+00
-6.343017715763229702e+00,-2.127694502483165329e-01,-8.065442692253666834e+00
-6.342984813999313687e+00,-2.123861774812495773e-01,-8.080329309914189295e+00
-6.342951435398239468e+00,-2.120109960447108810e-01,-8.095150302860814051e+00
-6.342918533634323452e+00,-2.116438910375392501e-01,-8.109907161209660487e+00
-6.343750852893967007e+00,-2.113534972081935470e-01,-8.124309729549962000e+00
-6.353803772281784390e+00,-2.118020668636119430e-01,-8.135616909477787928e+00
-6.367978948902267788e+00,-2.125815615068233078e-01,-8.145667623493748621e+00
-6.382326978992599820e+00,-2.133780583749568527e-01,-8.155797432873326258e+00
-6.396811861347336148e+00,-2.141887411485469406e-01,-8.166021179173069910e+00
-6.411381382297653531e+00,-2.150095418105876510e-01,-8.176357816670018153e+00
-6.426142591785568570e+00,-2.158488795171535080e-01,-8.186777662251072840e+00
-6.440991777729172085e+00,-2.166986331353938644e-01,-8.197315048191624598e+00
-6.456037420581955288e+00,-2.175673708329951828e-01,-8.207941125843602137e+00
-6.471173424076217984e+00,-2.184467926631724899e-01,-8.218689631435948328e+00
-6.486513275455612515e+00,-2.193457946191585128e-01,-8.229532133553105311e+00
-6.502018589328903531e+00,-2.202614262710368698e-01,-8.240483056519108729e+00
-6.517675298999924038e+00,-2.211926147352016037e-01,-8.251549672100621180e+00
-6.533484358142990445e+00,-2.221394941221034591e-01,-8.262735079739170985e+00
-6.549450058292526577e+00,-2.231024071584498947e-01,-8.274041723225193934e+00
-6.565632480930466031e+00,-2.240860775123393600e-01,-8.285458635304051356e+00
-6.581915754627365445e+00,-2.250815644870555465e-01,-8.297017406437474207e+00
-6.598421472858566617e+00,-2.260983303199565475e-01,-8.308693002674656825e+00
-6.615156072925705288e+00,-2.271368965516841476e-01,-8.320488881084996180e+00
-6.631996292423385952e+00,-2.281878307472026413e-01,-8.332435857269841151e+00
-6.649070877384323452e+00,-2.292611017833507125e-01,-8.344510208580571131e+00
-6.666319507908005093e+00,-2.303521201024806564e-01,-8.356728832933979945e+00
-6.683810371708053921e+00,-2.314661905179774826e-01,-8.369082372400837855e+00
-6.701415438007492398e+00,-2.325935229669368332e-01,-8.381599943850117640e+00
-6.719336885761398648e+00,-2.337497338662898605e-01,-8.394247840855198817e+00
-6.737446207355636929e+00,-2.349249884496486251e-01,-8.407054941866475062e+00
-6.755745310138840054e+00,-2.361195549379146164e-01,-8.420025061581212000e+00
-6.774238247226852749e+00,-2.373337909589564865e-01,-8.433161746475773768e+00
-6.792998928379196499e+00,-2.385734036575114791e-01,-8.446457873795109705e+00
-6.812034982990402554e+00,-2.398390933881557052e-01,-8.459917943689900355e+00
-6.831276792835373257e+00,-2.411256000409877365e-01,-8.473557691786366419e+00
-6.850767034839767788e+00,-2.424363210807597702e-01,-8.487375836584645228e+00
-6.870380300830978726e+00,-2.437617495666301315e-01,-8.501394074175435023e+00
-6.890259641956467007e+00,-2.451128974567210739e-01,-8.515597682211476283e+00
-6.910433191608566617e+00,-2.464920148263728683e-01,-8.529989134285527186e+00
-6.930829424213547085e+00,-2.478937372575557296e-01,-8.544582646105366663e+00
-6.951533693622726773e+00,-2.493246808658397262e-01,-8.559374164555149989e+00
-6.972469944309372281e+00,-2.507791832099711682e-01,-8.574377756331044154e+00
-6.993804115604538296e+00,-2.522699400792872693e-01,-8.589583258841114954e+00
-6.988523620914596890e+00,-2.517550900588786389e-01,-8.607325177404957728e+00
-6.961725849460739468e+00,-2.496230021129405563e-01,-8.626703586194592432e+00
-6.934844393085617398e+00,-2.474945649514949386e-01,-8.645740445468502955e+00
-6.908581394504684781e+00,-2.454224988828456466e-01,-8.664388563249188380e+00
-6.882818359684128140e+00,-2.433975800882136886e-01,-8.682668324325161890e+00
-6.857541698764938687e+00,-2.414184972654140060e-01,-8.700591366503315882e+00
-6.832865137409347867e+00,-2.394935503612315719e-01,-8.718162696573811488e+00
-6.808571953128952359e+00,-2.376061394820964401e-01,-8.735404219243603663e+00
-6.784839290928024624e+00,-2.357693776498591964e-01,-8.752317961070614771e+00
-6.761579174350876187e+00,-2.339763805280482833e-01,-8.768918368730622248e+00
-6.738654512714523648e+00,-2.322165980945384567e-01,-8.785218897972184138e+00
-6.716220993351120327e+00,-2.305015787492549484e-01,-8.801224183056431727e+00
-6.694179910968918179e+00,-2.288236036906993454e-01,-8.816945766795354800e+00
-6.672521013569015835e+00,-2.271817490468776291e-01,-8.832392170790511088e+00
-6.651234287571091031e+00,-2.255750611434733932e-01,-8.847571622345524744e+00
-6.630309957813400601e+00,-2.240026310096538131e-01,-8.862492066573279814e+00
-6.609738725971359585e+00,-2.224635794769084518e-01,-8.877161174777823405e+00
-6.589511770557541226e+00,-2.209570571790492599e-01,-8.891586363080817179e+00
-6.569622892688888882e+00,-2.194824382673060958e-01,-8.905774853888827280e+00
-6.549996513675827359e+00,-2.180338963876521652e-01,-8.919731568310337977e+00
-6.530773062061447476e+00,-2.166218325506007736e-01,-8.933467473599987940e+00
-6.511860746692795132e+00,-2.152392134080684249e-01,-8.946987006578522639e+00
-6.493179935764450406e+00,-2.138798698793208664e-01,-8.960292879257279353e+00
-6.474740166019577359e+00,-2.125444129119670456e-01,-8.973390783879834132e+00
-6.456550258945602749e+00,-2.112333938489711349e-01,-8.986286561701374964e+00
-6.438642877887863492e+00,-2.099491074691569870e-01,-8.998987864468174891e+00
-6.420947450946945523e+00,-2.086861297498500412e-01,-9.011495481941777186e+00
-6.403595823597092007e+00,-2.074542954574382370e-01,-9.023824643108921961e+00
-6.386447567295212124e+00,-2.062429204593455856e-01,-9.035970385882931666e+00
-6.369563717197555874e+00,-2.050564751039302414e-01,-9.047942813251095728e+00
-6.353075880359787320e+00,-2.039048537622249191e-01,-9.059760506961422877e+00
-6.340785402607101773e+00,-2.030758127580440109e-01,-9.071829449150639491e+00
-6.340756077121872281e+00,-2.031809255491054123e-01,-9.085122730348187403e+00
-6.340726990055221890e+00,-2.032922968278682296e-01,-9.098433743927555994e+00
-6.340697664569992398e+00,-2.034099265943324630e-01,-9.111763547871190028e+00
-6.340668815921921109e+00,-2.035339042554652755e-01,-9.125113229963856654e+00
-6.340639252018112515e+00,-2.036641702066218917e-01,-9.138483743879872279e+00
-6.340609688114303921e+00,-2.038007691512858932e-01,-9.151876162502842860e+00
-6.340580362629074429e+00,-2.039437606941020553e-01,-9.165291618321019129e+00
-6.340550560306686734e+00,-2.040931299339091842e-01,-9.178731094811039881e+00
-6.340521234821457242e+00,-2.042489811788356369e-01,-9.192195813868123011e+00
-6.340491670917648648e+00,-2.044112697253978317e-01,-9.205686758968907313e+00
-6.340461630176681851e+00,-2.045800104747569625e-01,-9.219204943392353968e+00
-6.340432066272873257e+00,-2.047553226362025802e-01,-9.232751648638325648e+00
-6.340402740787643765e+00,-2.049372211108958786e-01,-9.246328007195073084e+00
-6.340372700046676968e+00,-2.051256611953532760e-01,-9.259934883329945521e+00
-6.340342420887131070e+00,-2.053207471977031295e-01,-9.273573588345128016e+00
-6.340312618564743374e+00,-2.055225238214290207e-01,-9.287245314333516077e+00
-6.340282816242355679e+00,-2.057310059676921432e-01,-9.300951163981038050e+00
-6.340252537082809781e+00,-2.059462085376536911e-01,-9.314692180368977503e+00
-6.340222496341842984e+00,-2.061682358394420211e-01,-9.328469704601841883e+00
-6.340192455600876187e+00,-2.063971176753795211e-01,-9.342284928772526698e+00
-6.340161699604172085e+00,-2.066328242431438034e-01,-9.356138776753025965e+00
-6.340131420444626187e+00,-2.068755194555080001e-01,-9.370032857868748621e+00
-6.340100902866501187e+00,-2.071251735101497238e-01,-9.383968125794011073e+00
-6.340070385288376187e+00,-2.073818609128749435e-01,-9.397945951435643153e+00
-6.340039867710251187e+00,-2.076456561694896286e-01,-9.411967526886540369e+00
-6.340008634876388882e+00,-2.079165294776713913e-01,-9.426033984634953455e+00
-6.339977878879684781e+00,-2.081946447501933639e-01,-9.440146934006291346e+00
-6.339947361301559781e+00,-2.084800168882167404e-01,-9.454307507488804774e+00
-6.339916128467697476e+00,-2.087726756940639083e-01,-9.468516837570744471e+00
-6.339884895633835171e+00,-2.090726956735408371e-01,-9.482776473972874598e+00
-6.339853185962814663e+00,-2.093801066289699142e-01,-9.497087549183445887e+00
-6.339822191547531460e+00,-2.096950873742854660e-01,-9.511451851341801600e+00
-6.339790481876510952e+00,-2.100175932060039108e-01,-9.525870393726902918e+00
-6.339759010624069546e+00,-2.103477284322536056e-01,-9.540344666454869227e+00
-6.339727539371628140e+00,-2.106855973611629074e-01,-9.554876219246464686e+00
-6.339695591282028531e+00,-2.110311999927318161e-01,-9.569466244194584803e+00
-6.339663643192428921e+00,-2.113846406350886886e-01,-9.584116291019993739e+00
-6.339631218265671109e+00,-2.117459788928783004e-01,-9.598827849838810877e+00
-6.339599270176071499e+00,-2.121153786788737838e-01,-9.613602589581089930e+00
-6.339566845249313687e+00,-2.124928101907527511e-01,-9.628441881153660731e+00
-6.339534420322555874e+00,-2.128784075389659469e-01,-9.643347214672642664e+00
-6.339501995395798062e+00,-2.132722750316417282e-01,-9.658320437882023768e+00
-6.339469093631882046e+00,-2.136744424711024826e-01,-9.673362802479344325e+00
-6.339436191867966031e+00,-2.140850290666377609e-01,-9.688476096603947596e+00
-6.339402574848312710e+00,-2.145040944228923385e-01,-9.703661750767308192e+00
-6.339370149921554898e+00,-2.149318471561229293e-01,-9.718922089550572352e+00
-6.339336771320480679e+00,-2.153682574640071457e-01,-9.734258185837346034e+00
-6.339302439045090054e+00,-2.158133998523509567e-01,-9.749671589348393397e+00
-6.339269060444015835e+00,-2.162675276408946579e-01,-9.765164863083439784e+00
-7.201787847828049038e+00,-2.875970020900523449e-01,-1.015676726004846664e+01
-6.345011848758835171e+00,-2.573672547946727063e-01,-7.432414542648869471e+00
-6.344968694996017788e+00,-2.564946129928385998e-01,-7.451261531326847987e+00
-6.344926733326095913e+00,-2.556371107707774426e-01,-7.469957481834965662e+00
-6.344884771656174038e+00,-2.547943905006205823e-01,-7.488506208870488123e+00
-6.344843048404831265e+00,-2.539662286649501111e-01,-7.506910811874943690e+00
-6.344802040409225796e+00,-2.531524762521540906e-01,-7.525173675034123377e+00
-6.344761032413620327e+00,-2.523528054366862561e-01,-7.543298613045292811e+00
-6.344720262836593960e+00,-2.515670225034510876e-01,-7.561288248512822108e+00
-6.344679493259567593e+00,-2.507949188361918713e-01,-7.579145323250370936e+00
-6.344639438938278531e+00,-2.500363305221354748e-01,-7.596872698280888514e+00
-6.344600099872726773e+00,-2.492910638461864059e-01,-7.614472757790165858e+00
-6.344560522388595913e+00,-2.485588356862819259e-01,-7.631948720429020838e+00
-6.344520468067306851e+00,-2.478394374261653488e-01,-7.649303447220402674e+00
-6.344482082676071499e+00,-2.471328690658366745e-01,-7.666538249466496424e+00
-6.344443697284836148e+00,-2.464387878785884445e-01,-7.683656465027409510e+00
-6.344404835056442593e+00,-2.457569852481639450e-01,-7.700661074135380701e+00
-6.344366449665207242e+00,-2.450873866687572067e-01,-7.717553626511174159e+00
-6.344328779529709195e+00,-2.444298282275950973e-01,-7.734336506340580897e+00
-6.344291347812790249e+00,-2.437841013084209030e-01,-7.751012336227971034e+00
-6.344253677677292202e+00,-2.431500121961391037e-01,-7.767583619568425135e+00
-6.344216722797531460e+00,-2.425274714837825363e-01,-7.784052025291996912e+00
-6.344180244754928921e+00,-2.419163301597392624e-01,-7.800419818375187830e+00
-6.344143051456589077e+00,-2.413163349042689865e-01,-7.816689740631657557e+00
-6.344106334995407437e+00,-2.407273963104045456e-01,-7.832863460991459803e+00
-6.344070095371383999e+00,-2.401494547735011642e-01,-7.848942707989293055e+00
-6.344033855747360562e+00,-2.395822569738185470e-01,-7.864930044624882655e+00
-6.343998331379074429e+00,-2.390257880101955001e-01,-7.880827020618992762e+00
-6.343962807010788296e+00,-2.384798094640529220e-01,-7.896635900948124842e+00
-6.343927282642502163e+00,-2.379442319284236496e-01,-7.912358414146977381e+00
-6.343892473529953335e+00,-2.374189659963405197e-01,-7.927996467564183192e+00
-6.343857425998825406e+00,-2.369038179527080124e-01,-7.943552087757664637e+00
-6.343822378467697476e+00,-2.363986834893977707e-01,-7.959027122471409754e+00
-6.343787330936569546e+00,-2.359034582982814376e-01,-7.974423121426182703e+00
-6.343753475498337124e+00,-2.354181423793590133e-01,-7.989741515133458094e+00
-6.343719381641525601e+00,-2.349424675117290084e-01,-8.004984687779026942e+00
-6.343685049366134976e+00,-2.344763591895854538e-01,-8.020154189083653407e+00
-6.343651193927902554e+00,-2.340197876106059616e-01,-8.035251449558812098e+00
-6.343617338489670132e+00,-2.335725590596950119e-01,-8.050278316948491053e+00
-6.343583483051437710e+00,-2.331346288333690231e-01,-8.065236281368809657e+00
-6.343550342868942593e+00,-2.327059075246608322e-01,-8.080126892540532069e+00
-6.343516725849289273e+00,-2.322862610231196945e-01,-8.094951998207646326e+00
-6.343484062503952359e+00,-2.318756744275844162e-01,-8.109712671253758387e+00
-6.344301838230270718e+00,-2.315495923171794479e-01,-8.124123882267552332e+00
-6.354241508793014859e+00,-2.320410028110301559e-01,-8.135472308609562830e+00
-6.368448633503097867e+00,-2.329153582464015548e-01,-8.145515691254216151e+00
-6.382800001453537320e+00,-2.338062092672145431e-01,-8.155647586796360926e+00
-6.397286791156906460e+00,-2.347127959142482345e-01,-8.165873896095829920e+00
-6.411860126804489468e+00,-2.356308266530788009e-01,-8.176212619755345301e+00
-6.426624197315353726e+00,-2.365695253024852340e-01,-8.186634849522191004e+00
-6.441476482700485562e+00,-2.375199064622676437e-01,-8.197174440834599451e+00
-6.456525224994797085e+00,-2.384914919744288986e-01,-8.207802902672368006e+00
-6.471664089512008999e+00,-2.394749984155452316e-01,-8.218553852055149989e+00
-6.487007040332931851e+00,-2.404804542671001022e-01,-8.229398797962742762e+00
-6.502511877369064663e+00,-2.415041789422786300e-01,-8.240353058788853602e+00
-6.518170017551559781e+00,-2.425454720865047042e-01,-8.251422475788670496e+00
-6.533982891391891812e+00,-2.436044976125514572e-01,-8.262610208008366541e+00
-6.549951214145798062e+00,-2.446813598285472457e-01,-8.273919414494114832e+00
-6.566136974643844937e+00,-2.457814976583278244e-01,-8.285338829968052821e+00
-6.582422870945114468e+00,-2.468947932134425705e-01,-8.296900223705845789e+00
-6.598932880710739468e+00,-2.480320349345958297e-01,-8.308578144524174647e+00
-6.615669864963669156e+00,-2.491934910426890915e-01,-8.320376764748173670e+00
-6.632513899158615445e+00,-2.503688648353373791e-01,-8.332326303932743983e+00
-6.649591583561081265e+00,-2.515691831718241955e-01,-8.344403337452488856e+00
-6.666843313526291226e+00,-2.527893349538600232e-01,-8.356624614212590174e+00
-6.684337038349289273e+00,-2.540352508436000134e-01,-8.368980984900074915e+00
-6.701945680927414273e+00,-2.552960678945338513e-01,-8.381501238558369593e+00
-6.719870943378586148e+00,-2.565891757617747571e-01,-8.394151817772465662e+00
-6.737983602832931851e+00,-2.579035624872004773e-01,-8.406961690399723963e+00
-6.756286520313400601e+00,-2.592395409951960827e-01,-8.419934581730442957e+00
-6.774782556842941617e+00,-2.605974987159526135e-01,-8.433074187252598719e+00
-6.793545860599655484e+00,-2.619837984452998425e-01,-8.446373294804173426e+00
-6.812584537815231656e+00,-2.633992299447810437e-01,-8.459836404535847620e+00
-6.831797975849289273e+00,-2.648353144536769177e-01,-8.473483633015232996e+00
-6.851230997394699429e+00,-2.662960007797038342e-01,-8.487312834475117640e+00
-6.870825428318161343e+00,-2.677764460454737927e-01,-8.501336406681614832e+00
-6.890704531025070523e+00,-2.692872300754344250e-01,-8.515542816135960535e+00
-6.910879988025802945e+00,-2.708294406543528821e-01,-8.529936801407414393e+00
-6.931279558490890835e+00,-2.723970577131068493e-01,-8.544532727215367274e+00
-6.951985496830124234e+00,-2.739972338090693738e-01,-8.559326838467198328e+00
-6.972923893283981656e+00,-2.756237849603450085e-01,-8.574333023045140223e+00
-6.994264501880783413e+00,-2.772912099967753674e-01,-8.589540790531712489e+00
-6.989584583591598843e+00,-2.767662569890773083e-01,-8.607233818385678248e+00
-6.962787050556320523e+00,-2.743822053085124280e-01,-8.626618753883915858e+00
-6.935889381717819546e+00,-2.720008209358012463e-01,-8.645663376662808375e+00
-6.909614939045090054e+00,-2.696828857074534680e-01,-8.664318706605511622e+00
-6.883835930179733609e+00,-2.674173131595408703e-01,-8.682605799052792506e+00
-6.858544487308639859e+00,-2.652030751119410779e-01,-8.700535934183674769e+00
-6.833835024189133023e+00,-2.630478307615077282e-01,-8.718115057561474757e+00
-6.809531111072677945e+00,-2.609364554296290661e-01,-8.735363002631741480e+00
-6.785817999195236538e+00,-2.588842824111735608e-01,-8.752281907711106257e+00
-6.762554544757980679e+00,-2.568790927539622571e-01,-8.768888432297783808e+00
-6.739617485355514859e+00,-2.549103066335475232e-01,-8.785195257279950098e+00
-6.717171091388840054e+00,-2.529914990077769543e-01,-8.801206692818480448e+00
-6.695118326496261929e+00,-2.511142507205760266e-01,-8.816934250060397105e+00
-6.673448461841720913e+00,-2.492774590860164230e-01,-8.832386479478257613e+00
-6.652150530170578335e+00,-2.474799469123637741e-01,-8.847571622345524744e+00
-6.631215709995407437e+00,-2.457208201299464767e-01,-8.862497624706405119e+00
-6.610634226154465054e+00,-2.439990207563197677e-01,-8.877172164384203867e+00
-6.590399164508957242e+00,-2.423137888322627609e-01,-8.891602698478775935e+00
-6.570498365711349820e+00,-2.406639322648799484e-01,-8.905796348813849406e+00
-6.550854343723434781e+00,-2.390427306304729049e-01,-8.919757891211586909e+00
-6.531615871738571499e+00,-2.374625369916713302e-01,-8.933498512718754725e+00
-6.512695450138229702e+00,-2.359158709655559127e-01,-8.947022873673516230e+00
-6.493962425541061734e+00,-2.343915119777476852e-01,-8.960331316802578883e+00
-6.475481886219162320e+00,-2.328948393474376266e-01,-8.973431791875439600e+00
-6.457278150867599820e+00,-2.314277306209361618e-01,-8.986331294987278895e+00
-6.439362663578171109e+00,-2.299910053621089523e-01,-8.999036516759472804e+00
-6.421661276172775601e+00,-2.285783007751262252e-01,-9.011548127744275050e+00
-6.404302734684128140e+00,-2.272003456960475509e-01,-9.023881148312169032e+00
-6.387147802662033413e+00,-2.258452788005626266e-01,-9.036030675981121973e+00
-6.370257276844162320e+00,-2.245180919776713913e-01,-9.048006813738423304e+00
-6.353757757496017788e+00,-2.232294395576274459e-01,-9.059827666494923548e+00
-6.341347355198044156e+00,-2.222923204313075607e-01,-9.071888278935032801e+00
-6.341318268131393765e+00,-2.224098756919658249e-01,-9.085185047004300074e+00
-6.341289181064743374e+00,-2.225344643007075851e-01,-9.098499607060032801e+00
-6.341260093998092984e+00,-2.226660564552104538e-01,-9.111832927677708582e+00
-6.341230530094284390e+00,-2.228046670566356247e-01,-9.125186037037449793e+00
-6.341200727771896695e+00,-2.229503408084666793e-01,-9.138560008022862391e+00
-6.341171879123825406e+00,-2.231031671176707809e-01,-9.151956032726841883e+00
-6.341143030475754117e+00,-2.232631459842479293e-01,-9.165375094626027064e+00
-6.341112989734787320e+00,-2.234302029023921554e-01,-9.178818087790089564e+00
-6.341083425830978726e+00,-2.236044868837153976e-01,-9.192286293718892054e+00
-6.341054338764328335e+00,-2.237860277305400436e-01,-9.205780844900685267e+00
-6.341023821186203335e+00,-2.239747360358989303e-01,-9.219302516195851283e+00
-6.340995210956711148e+00,-2.241708949218547409e-01,-9.232852916929799036e+00
-6.340964931797165249e+00,-2.243742659698283737e-01,-9.246432672951298670e+00
-6.340934652637619351e+00,-2.245850279937541549e-01,-9.260043125364857630e+00
-6.340905565570968960e+00,-2.248032853017604416e-01,-9.273685555670338587e+00
-6.340875286411423062e+00,-2.250289186845576828e-01,-9.287360798332768397e+00
-6.340845722507614468e+00,-2.252621516595637863e-01,-9.301070313665944056e+00
-6.340814966510910367e+00,-2.255028203140056198e-01,-9.314814876530247645e+00
-6.340785164188522671e+00,-2.257511630664622848e-01,-9.328596066448765711e+00
-6.340755361866134976e+00,-2.260071799169337814e-01,-9.342414956305104212e+00
-6.340724605869430874e+00,-2.262708112607753341e-01,-9.356272469971257166e+00
-6.340694326709884976e+00,-2.265422508130824630e-01,-9.370170186970311121e+00
-6.340664047550339077e+00,-2.268215134750163620e-01,-9.384109209988194422e+00
-6.340633768390793179e+00,-2.271086290488994186e-01,-9.398090731117802576e+00
-6.340603012394089077e+00,-2.274036422382152145e-01,-9.412115942452031092e+00
-6.340572256397384976e+00,-2.277066424499309127e-01,-9.426186214897709803e+00
-6.340541738819259976e+00,-2.280177190910136764e-01,-9.440302919361668543e+00
-6.340510744403976773e+00,-2.283368721614635055e-01,-9.454467128727513270e+00
-6.340479988407272671e+00,-2.286642357717311447e-01,-9.468680333111363367e+00
-6.340448517154831265e+00,-2.289997801194942062e-01,-9.482943665001469569e+00
-6.340417045902389859e+00,-2.293436393152034347e-01,-9.497258614513951258e+00
-6.340386051487106656e+00,-2.296959474693095749e-01,-9.511626731369572596e+00
-6.340354341816086148e+00,-2.300566300760066574e-01,-9.526048969242649989e+00
-6.340323347400802945e+00,-2.304259404550349777e-01,-9.540527295086461024e+00
-6.340291637729782437e+00,-2.308038041005885666e-01,-9.555062543366032557e+00
-6.340260166477341031e+00,-2.311903849254405563e-01,-9.569656502220707850e+00
-6.340227979969162320e+00,-2.315856978307521408e-01,-9.584310482952671961e+00
-6.340195793460983609e+00,-2.319898769269740646e-01,-9.599025975678044276e+00
-6.340163845371383999e+00,-2.324030116210734909e-01,-9.613804649326878504e+00
-6.340131658863205288e+00,-2.328251913200175827e-01,-9.628647874806004481e+00
-6.340098995517868374e+00,-2.332564607272899215e-01,-9.643557142231541590e+00
-6.340066570591110562e+00,-2.336969837556636398e-01,-9.658534299347477869e+00
-6.340034145664352749e+00,-2.341468200097835128e-01,-9.673580717060643153e+00
-6.340001482319015835e+00,-2.346060886989390915e-01,-9.688698123905735926e+00
-6.339967865299362515e+00,-2.350748047242915695e-01,-9.703887831184941248e+00
-6.339935440372604702e+00,-2.355532363067424362e-01,-9.719152223084050135e+00
-6.339901823352951382e+00,-2.360413238416469162e-01,-9.734492253277378992e+00
-6.339868683170456265e+00,-2.365393057475841110e-01,-9.749910246346074061e+00
-6.339834827732223843e+00,-2.370471969257152145e-01,-9.765407453987675623e+00
-7.021019357990402554e+00,-3.001472368846690442e-01,-1.007796157500513168e+01
-6.344494242023605679e+00,-2.802244439731395032e-01,-7.432755719635563807e+00
-6.344451565097946499e+00,-2.792596980939662243e-01,-7.451598059151249842e+00
-6.344408888172287320e+00,-2.783115968118464734e-01,-7.470289837334233241e+00
-6.344366926502365445e+00,-2.773799017082011487e-01,-7.488834153626042323e+00
-6.344325203251022671e+00,-2.764643147598063733e-01,-7.507234226677494959e+00
-6.344284195255417202e+00,-2.755646422515666272e-01,-7.525492798302250819e+00
-6.344242710422653531e+00,-2.746804967532908703e-01,-7.543613563988285975e+00
-6.344201702427048062e+00,-2.738117292533671643e-01,-7.561599027130680994e+00
-6.344161409687179898e+00,-2.729581460366999890e-01,-7.579451691124516444e+00
-6.344121593784469937e+00,-2.721194937835490490e-01,-7.597174536202031092e+00
-6.344081539463180874e+00,-2.712954893718516614e-01,-7.614770661804753260e+00
-6.344041723560470913e+00,-2.704859390865123059e-01,-7.632242571327763514e+00
-6.344001907657760952e+00,-2.696905896077906872e-01,-7.649593006584721522e+00
-6.343963045429367398e+00,-2.689093813310420300e-01,-7.666823874924260096e+00
-6.343924660038132046e+00,-2.681420311342036511e-01,-7.683938037369328455e+00
-6.343886036228317593e+00,-2.673882856975352551e-01,-7.700938235733586268e+00
-6.343847173999924038e+00,-2.666479215036189343e-01,-7.717827092621403651e+00
-6.343809980701584195e+00,-2.659209832559382702e-01,-7.734605680916386561e+00
-6.343771833728927945e+00,-2.652070090184962536e-01,-7.751277934525090174e+00
-6.343734402012008999e+00,-2.645059987912928845e-01,-7.767845045540409998e+00
-6.343696970295090054e+00,-2.638176992545878674e-01,-7.784309636566716151e+00
-6.343660492252487515e+00,-2.631420359025752331e-01,-7.800673495743351893e+00
-6.343624014209884976e+00,-2.624787405143534924e-01,-7.816939245674687342e+00
-6.343586820911545132e+00,-2.618276193748271252e-01,-7.833109151337223963e+00
-6.343550581287521695e+00,-2.611886426816737439e-01,-7.849184524033146815e+00
-6.343514341663498257e+00,-2.605615869174754407e-01,-7.865167926762181239e+00
-6.343478578876633023e+00,-2.599463179717814709e-01,-7.881061266872960047e+00
-6.343442577671188687e+00,-2.593426719318187024e-01,-7.896866392109471278e+00
-6.343407291721481656e+00,-2.587505593906199719e-01,-7.912585090611058192e+00
-6.343372244190353726e+00,-2.581698164354121472e-01,-7.928219448540287928e+00
-6.343337673496383999e+00,-2.576003089557444836e-01,-7.943771194431858973e+00
-6.343302149128097867e+00,-2.570418134341990735e-01,-7.959242533657628016e+00
-6.343267101596969937e+00,-2.564943149696147229e-01,-7.974634837124424891e+00
-6.343233246158737515e+00,-2.559577539573466565e-01,-7.989949594948368983e+00
-6.343199390720505093e+00,-2.554318770776545788e-01,-8.005188952896672205e+00
-6.343164343189377163e+00,-2.549164906154429699e-01,-8.020355116341191248e+00
-6.343130487751144742e+00,-2.544117137800013806e-01,-8.035448621723729090e+00
-6.343096870731491421e+00,-2.539172932515895154e-01,-8.050471734020787196e+00
-6.343062776874679898e+00,-2.534330949197566296e-01,-8.065426241371708826e+00
-6.343029636692184781e+00,-2.529591336856639172e-01,-8.080313157055455164e+00
-6.342996258091110562e+00,-2.524951860318934704e-01,-8.095134626839238123e+00
-6.342963356327194546e+00,-2.520412370572840954e-01,-8.109891783211308436e+00
-6.343774456333298062e+00,-2.516800925145900036e-01,-8.124301742527562098e+00
-6.353657621692795132e+00,-2.522180989394938733e-01,-8.135665189240055994e+00
-6.367870468448776577e+00,-2.531856760392939831e-01,-8.145702671024876551e+00
-6.382217783283371304e+00,-2.541705235849177624e-01,-8.155831943962651209e+00
-6.396701235126633023e+00,-2.551728203902995373e-01,-8.166055451843815760e+00
-6.411270279239792202e+00,-2.561877086768901135e-01,-8.176391552898961024e+00
-6.426030535053390835e+00,-2.572255000482356335e-01,-8.186810921642857508e+00
-6.440878528904098843e+00,-2.582761660228526379e-01,-8.197347830746251063e+00
-6.455923456501144742e+00,-2.593503162275111462e-01,-8.207973431561070399e+00
-6.471058029483932827e+00,-2.604376092563426282e-01,-8.218721639130192713e+00
-6.486396688770431851e+00,-2.615491613755976941e-01,-8.229563604805546717e+00
-6.501895565342087124e+00,-2.626807555566584851e-01,-8.240515481445866541e+00
-6.517548460315842007e+00,-2.638318553577220227e-01,-8.251582275841313319e+00
-6.533356565784592007e+00,-2.650026246915614392e-01,-8.262767087433415369e+00
-6.549320835422653531e+00,-2.661931678663050915e-01,-8.274073194477635340e+00
-6.565502542804855679e+00,-2.674094304452693249e-01,-8.285489510510045008e+00
-6.581783909153122281e+00,-2.686402216563975598e-01,-8.297047804806309657e+00
-6.598288912128586148e+00,-2.698974028240000989e-01,-8.308722804997044520e+00
-6.615022081684250210e+00,-2.711815252910411145e-01,-8.320518087360936121e+00
-6.631861109089035367e+00,-2.724809363494670178e-01,-8.332464527103978114e+00
-6.648933548282760952e+00,-2.738078698526179577e-01,-8.344538401577549891e+00
-6.666180509876388882e+00,-2.751567974696910168e-01,-8.356756429884510951e+00
-6.683669704746383999e+00,-2.765342012058055188e-01,-8.369109492514210658e+00
-6.701273102115768765e+00,-2.779280558238780285e-01,-8.381626438114720301e+00
-6.719193119358200406e+00,-2.793576136241709973e-01,-8.394273679468708949e+00
-6.737301010440964077e+00,-2.808107152591502453e-01,-8.407080154631215052e+00
-6.755599159549850796e+00,-2.822877332578456189e-01,-8.420049499485569910e+00
-6.774089950870651577e+00,-2.837889656434809948e-01,-8.433185647938328700e+00
-6.792848247837204312e+00,-2.853215798745906140e-01,-8.446481179211216883e+00
-6.811879534076828335e+00,-2.868862167011058117e-01,-8.459940951082783656e+00
-6.831067699741501187e+00,-2.884719833741938855e-01,-8.473587374899464564e+00
-6.850462335895675992e+00,-2.900837376724040295e-01,-8.487417202208119349e+00
-6.870046991657394742e+00,-2.917200043807780530e-01,-8.501437227938252406e+00
-6.889918941806930874e+00,-2.933900669227397229e-01,-8.515639703486042933e+00
-6.910087484668869351e+00,-2.950949087749278332e-01,-8.530029635641652064e+00
-6.930480140995163296e+00,-2.968278542171275403e-01,-8.544621359322148280e+00
-6.951180118869919156e+00,-2.985968604694163586e-01,-8.559411179039555506e+00
-6.972112554859299038e+00,-3.003950729976451184e-01,-8.574412952873784022e+00
-6.993446249317306851e+00,-3.022384062419688489e-01,-8.589616309616642909e+00
-6.989071029972214077e+00,-3.016863778243815686e-01,-8.607278045032101588e+00
-6.962280649494308804e+00,-2.990506902347361828e-01,-8.626659240338879542e+00
-6.935388702701706265e+00,-2.964178338657176282e-01,-8.645700301740246729e+00
-6.909114736866134976e+00,-2.938546255241191174e-01,-8.664352517340260462e+00
-6.883340973209518765e+00,-2.913497701297557141e-01,-8.682636212322789149e+00
-6.858050007175583218e+00,-2.889012262235438611e-01,-8.700563262913304285e+00
-6.833333391498703335e+00,-2.865172192464625622e-01,-8.718139704082089381e+00
-6.809036392521042202e+00,-2.841830268512522961e-01,-8.735384266588765101e+00
-6.785341400455612515e+00,-2.819153383384501721e-01,-8.752299461278992609e+00
-6.762081283878464077e+00,-2.796982392679011609e-01,-8.768902960929947810e+00
-6.739146608661789273e+00,-2.775212988267695691e-01,-8.785206816855746226e+00
-6.716704506229538296e+00,-2.753998056064402844e-01,-8.801215283337908701e+00
-6.694654602359909390e+00,-2.733241483579432751e-01,-8.816939940441328005e+00
-6.672987360309738492e+00,-2.712931796918666150e-01,-8.832389308836239294e+00
-6.651691812824386929e+00,-2.693056628118312146e-01,-8.847571622345524744e+00
-6.630759376835007046e+00,-2.673605546365535046e-01,-8.862494824219423251e+00
-6.610180038761276577e+00,-2.654567226777827527e-01,-8.877166593212562518e+00
-6.589945930790085171e+00,-2.635931983600413586e-01,-8.891594353828507380e+00
-6.570047754596847867e+00,-2.617689535032069470e-01,-8.905785284701662974e+00
-6.550403255771774624e+00,-2.599761053930079724e-01,-8.919744048032837824e+00
-6.531165260624069546e+00,-2.582287207256114270e-01,-8.933481920275765376e+00
-6.512172121357101773e+00,-2.565115407119548108e-01,-8.947000380370694117e+00
-6.493487495731491421e+00,-2.548303619037425305e-01,-8.960307989034729914e+00
-6.474997419666427945e+00,-2.531743511567866589e-01,-8.973404999587613062e+00
-6.456796068500656460e+00,-2.515521809469020154e-01,-8.986301671478825526e+00
-6.438884157489914273e+00,-2.499637022624766891e-01,-8.999004166338520960e+00
-6.421184677433151577e+00,-2.484016433368480270e-01,-9.011512975905018763e+00
-6.403830189060348843e+00,-2.468782082210338180e-01,-9.023843388769703822e+00
-6.386678356479782437e+00,-2.453799709687984054e-01,-9.035990249130803065e+00
-6.369789499591965054e+00,-2.439124599109447067e-01,-9.047963645074444727e+00
-6.353290457080978726e+00,-2.424874022613322799e-01,-9.059781621906834559e+00
-6.340826172184128140e+00,-2.414460346113002365e-01,-9.071833710882740931e+00
-6.340796846698898648e+00,-2.415760025392329757e-01,-9.085127245400029139e+00
-6.340767521213669156e+00,-2.417136892686641281e-01,-9.098438482496815638e+00
-6.340738195728439663e+00,-2.418591544042384689e-01,-9.111768554661351160e+00
-6.340709108661789273e+00,-2.420124575506007736e-01,-9.125118475172596888e+00
-6.340680021595138882e+00,-2.421735540042674606e-01,-9.138489257309514002e+00
-6.340650457691330288e+00,-2.423424735675609176e-01,-9.151881944153386073e+00
-6.340621132206100796e+00,-2.425193056474483078e-01,-9.165297697994786219e+00
-6.340591806720871304e+00,-2.427040353427684372e-01,-9.178737472508030848e+00
-6.340562242817062710e+00,-2.428967222581660812e-01,-9.192202429983693079e+00
-6.340533155750412320e+00,-2.430974408994472091e-01,-9.205693673107701258e+00
-6.340503353428024624e+00,-2.433061316619670456e-01,-9.219212185356694178e+00
-6.340473551105636929e+00,-2.435228988538539474e-01,-9.232759129021244959e+00
-6.340443987201828335e+00,-2.437478020797526901e-01,-9.246335666391926722e+00
-6.340413946460861538e+00,-2.439808115373408859e-01,-9.259942810747700648e+00
-6.340384144138473843e+00,-2.442220762382304733e-01,-9.273581873390751795e+00
-6.340354103397507046e+00,-2.444715514789378707e-01,-9.287253807995396571e+00
-6.340324539493698452e+00,-2.447293862710750167e-01,-9.300959985468464808e+00
-6.340294498752731656e+00,-2.449955210099971359e-01,-9.314701299879628138e+00
-6.340263981174606656e+00,-2.452700302015101974e-01,-9.328479032728749232e+00
-6.340234178852218960e+00,-2.455530777583873336e-01,-9.342294554922657923e+00
-6.340203422855514859e+00,-2.458445444713389938e-01,-9.356148671124058680e+00
-6.340173382114548062e+00,-2.461446687589442794e-01,-9.370043109867649989e+00
-6.340143341373581265e+00,-2.464534208188808029e-01,-9.383978735420781092e+00
-6.340112823795456265e+00,-2.467708453546321457e-01,-9.397956859085637049e+00
-6.340082544635910367e+00,-2.470970317731654708e-01,-9.411978792164402918e+00
-6.340051550220627163e+00,-2.474320098768031662e-01,-9.426045547936039881e+00
-6.340021032642502163e+00,-2.477759286771571701e-01,-9.440158854935246424e+00
-6.339990515064377163e+00,-2.481288179765498703e-01,-9.454319726440983729e+00
-6.339959282230514859e+00,-2.484906926761424606e-01,-9.468529354546147303e+00
-6.339928049396652554e+00,-2.488616719852244918e-01,-9.482789288971501307e+00
-6.339897054981369351e+00,-2.492418751130855148e-01,-9.497100841019230799e+00
-6.339865822147507046e+00,-2.496313467632091110e-01,-9.511465381596165614e+00
-6.339834112476486538e+00,-2.500301465402400281e-01,-9.525884222004490809e+00
-6.339802641224045132e+00,-2.504383787523066784e-01,-9.540358792755680994e+00
-6.339771408390182827e+00,-2.508561924110209729e-01,-9.554890703175145106e+00
-6.339740175556320523e+00,-2.512835875163829114e-01,-9.569481204960423426e+00
-6.339708227466720913e+00,-2.517206534753596570e-01,-9.584131609413701014e+00
-6.339675802539963101e+00,-2.521674647937571789e-01,-9.598843466255742030e+00
-6.339643616031784390e+00,-2.526242300878321911e-01,-9.613618563625889735e+00
-6.339611906360763882e+00,-2.530910089622294690e-01,-9.628458272430973963e+00
-6.339579481434006070e+00,-2.535678461204325940e-01,-9.643364082787114100e+00
-6.339546818088669156e+00,-2.540548309694087292e-01,-9.658337365601139979e+00
-6.339514631580490445e+00,-2.545522019277369763e-01,-9.673380326244908289e+00
-6.339482206653732632e+00,-2.550599589954173352e-01,-9.688494156811314539e+00
-6.339448589634079312e+00,-2.555781617770945813e-01,-9.703680168602543787e+00
-6.339415926288742398e+00,-2.561070784936702038e-01,-9.718940745804387049e+00
-6.339382786106247281e+00,-2.566467538486277844e-01,-9.734277259323674159e+00
-6.339349169086593960e+00,-2.571972474466120984e-01,-9.749691258881169276e+00
-6.339315552066940640e+00,-2.577587828050410534e-01,-9.765184830639439539e+00
-6.956964630436081265e+00,-3.210826531062876965e-01,-1.005003715655572982e+01
-6.345217603992599820e+00,-3.032600298534190442e-01,-7.432278763268071131e+00
-6.345174211811203335e+00,-3.022023752342021252e-01,-7.451127897713261561e+00
-6.345132011722702359e+00,-3.011630490432536389e-01,-7.469825755570012049e+00
-6.345089334797043179e+00,-3.001416042457377698e-01,-7.488376747582035975e+00
-6.345047611545700406e+00,-2.991379216323649670e-01,-7.506783019516545252e+00
-6.345006365131515835e+00,-2.981516435752665783e-01,-7.525047790024357752e+00
-6.344964641880173062e+00,-2.971823528419291760e-01,-7.543174873802739100e+00
-6.344923633884567593e+00,-2.962299898277079846e-01,-7.561166297409611659e+00
-6.344882625888962124e+00,-2.952941969047343518e-01,-7.579025398705082850e+00
-6.344842571567673062e+00,-2.943747952590739514e-01,-7.596754442665654139e+00
-6.344802517246383999e+00,-2.934715166698252942e-01,-7.614356409523564295e+00
-6.344762462925094937e+00,-2.925840035091197278e-01,-7.631834398720341639e+00
-6.344722647022384976e+00,-2.917121067653453137e-01,-7.649190556023198084e+00
-6.344683546375412320e+00,-2.908557072292125012e-01,-7.666427265617924647e+00
-6.344644922565597867e+00,-2.900144770751750256e-01,-7.683547388527470545e+00
-6.344605583500046109e+00,-2.891881182800090100e-01,-7.700553666565495448e+00
-6.344566959690231656e+00,-2.883765414367472912e-01,-7.717448007080632166e+00
-6.344529289554733609e+00,-2.875795826326167370e-01,-7.734232555840092616e+00
-6.344491142582077359e+00,-2.867968991409098889e-01,-7.750910293076115565e+00
-6.344453234028000210e+00,-2.860283568511760022e-01,-7.767483245346623377e+00
-6.344416040729660367e+00,-2.852738663564479138e-01,-7.783953200790959315e+00
-6.344378847431320523e+00,-2.845330849300181653e-01,-7.800322901222783045e+00
-6.344341892551559781e+00,-2.838059380660807873e-01,-7.816594134781437830e+00
-6.344304937671799038e+00,-2.830921575437342907e-01,-7.832769404862004237e+00
-6.344268698047775601e+00,-2.823916837583339001e-01,-7.848850320789891200e+00
-6.344232458423752163e+00,-2.817042782913005139e-01,-7.864839087936955409e+00
-6.344196218799728726e+00,-2.810297474275386120e-01,-7.880737852070408778e+00
-6.344160217594284390e+00,-2.803680017600810315e-01,-7.896548341724949793e+00
-6.344124454807419156e+00,-2.797188773761546399e-01,-7.912272464249211268e+00
-6.344089407276291226e+00,-2.790822401653086926e-01,-7.927912067387181239e+00
-6.344054359745163296e+00,-2.784578964124476697e-01,-7.943469118092137293e+00
-6.344018835376877163e+00,-2.778456524024760510e-01,-7.958945642922001795e+00
-6.343984026264328335e+00,-2.772454634319102551e-01,-7.974343072388249354e+00
-6.343949693988937710e+00,-2.766572251926219250e-01,-7.989663075420933680e+00
-6.343915123294967984e+00,-2.760806694637095715e-01,-8.004907857391911463e+00
-6.343880791019577359e+00,-2.755157664428508069e-01,-8.020078669998722987e+00
-6.343846697162765835e+00,-2.749623820195948865e-01,-8.035177420590001063e+00
-6.343812603305954312e+00,-2.744203373800074841e-01,-8.050205718491154627e+00
-6.343778747867721890e+00,-2.738895729194438244e-01,-8.065165053818303065e+00
-6.343745846103805874e+00,-2.733700141320979382e-01,-8.080056976292210535e+00
-6.343711990665573452e+00,-2.728613629947459485e-01,-8.094883452866154627e+00
-6.343678612064499234e+00,-2.723636940131938244e-01,-8.109645675633030848e+00
-6.344478744815964077e+00,-2.719665780673777844e-01,-8.124064277622776942e+00
-6.354275364231247281e+00,-2.725466951738154675e-01,-8.135461102936345057e+00
-6.368492025684494351e+00,-2.736073002229487683e-01,-8.145501624558049159e+00
-6.382843632053512906e+00,-2.746868893514430310e-01,-8.155633758518773035e+00
-6.397330660175461148e+00,-2.757855519662654187e-01,-8.165860306236821131e+00
-6.411903042148727749e+00,-2.768979832540309216e-01,-8.176199566338139491e+00
-6.426667589496750210e+00,-2.780355975042140271e-01,-8.186621915314274744e+00
-6.441519636463302945e+00,-2.791872933517253186e-01,-8.197161923859196619e+00
-6.456568378757614468e+00,-2.803646937022959973e-01,-8.207790683720189051e+00
-6.471707004856247281e+00,-2.815565481792247082e-01,-8.218541990730839686e+00
-6.487050194095749234e+00,-2.827750310312068249e-01,-8.229387055847722010e+00
-6.502547640155929898e+00,-2.840148523460185315e-01,-8.240343581650334315e+00
-6.518193620990890835e+00,-2.852754607806956555e-01,-8.251416455719548182e+00
-6.533999580692428921e+00,-2.865581080327784802e-01,-8.262606035683232264e+00
-6.549963373493332242e+00,-2.878626450906550671e-01,-8.273916434261876063e+00
-6.566145080875534390e+00,-2.891954198489939953e-01,-8.285336922619420008e+00
-6.582426685642380093e+00,-2.905441388498103406e-01,-8.296899329636174159e+00
-6.598931927036423062e+00,-2.919217959056651379e-01,-8.308578382942753748e+00
-6.615665096592087124e+00,-2.933289125572001721e-01,-8.320377837631779627e+00
-6.632504123996872281e+00,-2.947528079162394787e-01,-8.332328390095311121e+00
-6.649577516864914273e+00,-2.962069526325022961e-01,-8.344406198475438075e+00
-6.666824716877121304e+00,-2.976851478229319836e-01,-8.356628339502888636e+00
-6.684313911747116421e+00,-2.991945162425792004e-01,-8.368985455248433070e+00
-6.701917309116501187e+00,-3.007219448695933606e-01,-8.381506483767109827e+00
-6.719838280033249234e+00,-3.022885635505473401e-01,-8.394157659027653651e+00
-6.737945932697433804e+00,-3.038808718333995129e-01,-8.406968246910649256e+00
-6.756244558643478726e+00,-3.054994955669200207e-01,-8.419941585276204066e+00
-6.774735111545700406e+00,-3.071445539603984143e-01,-8.433081816647129969e+00
-6.793494600605148648e+00,-3.088241532455241467e-01,-8.446381222221928553e+00
-6.812523502658981656e+00,-3.105384722362315442e-01,-8.459845464441853480e+00
-6.831739086460251187e+00,-3.122790172706401135e-01,-8.473492007467823939e+00
-6.851168531726974820e+00,-3.140488281856333996e-01,-8.487321298334675745e+00
-6.870760101627487515e+00,-3.158426001678263928e-01,-8.501344840738850550e+00
-6.890636343311447476e+00,-3.176731482158458020e-01,-8.515551220390873866e+00
-6.910807985614914273e+00,-3.195417240272319104e-01,-8.529945235464650111e+00
-6.931204218219894742e+00,-3.214411452422892834e-01,-8.544541042063313441e+00
-6.951907057117599820e+00,-3.233799949298655774e-01,-8.559335063908177332e+00
-6.972843069385666226e+00,-3.253508821140086438e-01,-8.574341010067540125e+00
-6.994179863285202359e+00,-3.273711815486705090e-01,-8.589548598740178065e+00
-6.990243572544235562e+00,-3.268111959110057141e-01,-8.607177059862690882e+00
-6.963451284717697476e+00,-3.239225760112559582e-01,-8.626565661046582179e+00
-6.936541933368820523e+00,-3.210354462276255871e-01,-8.645615245912152247e+00
-6.910253662418503140e+00,-3.182249978194987561e-01,-8.664275523040371851e+00
