2.2378666400909424,0.14508529007434845,1.1610840559005737
2.339120388031006,0.15213696658611298,1.231892704963684
2.453385353088379,0.16008912026882172,1.3113617897033691
2.579298496246338,0.1688622385263443,1.3990789651870728
2.7215094566345215,0.17877091467380524,1.4979026317596436
2.8813071250915527,0.18991266191005707,1.6089677810668945
-2.419689416885376,0.29539212584495544,4.526920795440674
-2.3470492362976074,0.28327780961990356,4.326947212219238
-2.279967784881592,0.27210840582847595,4.142427921295166
-2.2253401279449463,0.26266545057296753,3.9850940704345703
-2.2296698093414307,0.2603209912776947,3.935917615890503
-2.256141185760498,0.2605939209461212,3.9262747764587402
-2.282675266265869,0.2608779966831207,3.9166221618652344
-2.3092777729034424,0.2611735463142395,3.906963586807251
-2.335930585861206,0.261478453874588,3.8972647190093994
-2.362643003463745,0.26179349422454834,3.8875367641448975
-2.389430046081543,0.26212018728256226,3.8777997493743896
-2.416278600692749,0.26245686411857605,3.868027448654175
-2.4431960582733154,0.26280421018600464,3.8582282066345215
-2.470179557800293,0.26316171884536743,3.8483924865722656
-2.4972548484802246,0.26353198289871216,3.8385562896728516
-2.5244061946868896,0.263913094997406,3.82869029045105
-2.5516183376312256,0.2643033266067505,3.8187668323516846
-2.5789332389831543,0.2647068500518799,3.808844804763794
-2.6063146591186523,0.2651197612285614,3.798865556716919
-2.6337881088256836,0.2655445635318756,3.788863182067871
-2.661353349685669,0.26598095893859863,3.7788312435150146
-2.6890196800231934,0.2664298117160797,3.7687795162200928
-2.7167673110961914,0.26688888669013977,3.7586746215820312
-2.7446227073669434,0.26736074686050415,3.748549699783325
-2.772568702697754,0.26784348487854004,3.7383761405944824
-2.8006107807159424,0.26833751797676086,3.7281575202941895
-2.8287711143493652,0.2688447833061218,3.7179179191589355
-2.85703444480896,0.2693637013435364,3.7076334953308105
-2.885408401489258,0.2698948085308075,3.6973092555999756
-2.9138927459716797,0.27043798565864563,3.6869401931762695
-2.942495822906494,0.27099379897117615,3.67653226852417
-2.9712026119232178,0.27156078815460205,3.666062355041504
-3.0000526905059814,0.2721423804759979,3.6555747985839844
-3.0290167331695557,0.2727357745170593,3.645028591156006
-3.0581178665161133,0.27334293723106384,3.6344473361968994
-3.087339401245117,0.2739621698856354,3.623805522918701
-3.116687774658203,0.2745940089225769,3.613107204437256
-3.1461920738220215,0.27524080872535706,3.6023809909820557
-3.175812244415283,0.27589893341064453,3.591575860977173
-3.2055959701538086,0.27657240629196167,3.5807414054870605
-3.2355287075042725,0.27725985646247864,3.5698559284210205
-3.2655954360961914,0.27795979380607605,3.5588977336883545
-3.2958266735076904,0.27867478132247925,3.547895908355713
-3.3262040615081787,0.27940306067466736,3.536825180053711
-3.3567564487457275,0.2801469564437866,3.5257115364074707
-3.387465715408325,0.2809047996997833,3.5145304203033447
-3.418341875076294,0.28167733550071716,3.5032873153686523
-3.449411630630493,0.2824665904045105,3.492004156112671
-3.480635166168213,0.2832691967487335,3.480635166168213
-3.512172222137451,0.2840979993343353,3.4693338871002197
-3.543896436691284,0.2849424481391907,3.4579663276672363
-3.5757393836975098,0.28579702973365784,3.4464616775512695
-3.6078240871429443,0.2866714596748352,3.434934139251709
-3.640145778656006,0.2875651717185974,3.4233717918395996
-3.6726324558258057,0.28847238421440125,3.411700963973999
-3.7052974700927734,0.2893940210342407,3.3999297618865967
-3.738259792327881,0.29033926129341125,3.3881611824035645
-3.7713699340820312,0.2912963628768921,3.3762528896331787
-3.8046934604644775,0.2922702729701996,3.3642590045928955
-3.838219165802002,0.2932600677013397,3.3521647453308105
-3.8720602989196777,0.2942742705345154,3.340062141418457
-3.906108856201172,0.2953045070171356,3.327850580215454
-3.940345525741577,0.2963492274284363,3.3155088424682617
-3.974860906600952,0.297415167093277,3.3031070232391357
-4.00960111618042,0.2984981834888458,3.2905948162078857
-4.044591903686523,0.2996000349521637,3.2779860496520996
-6.58425235748291,0.48531919717788696,5.269676685333252
-6.081766128540039,0.44609904289245605,4.806591510772705
-5.222951889038086,0.3812631070613861,4.076031684875488
-4.3657636642456055,0.31717759370803833,3.3641774654388428
-4.223641395568848,0.3054139316082001,3.213549852371216
-4.260332107543945,0.30664128065109253,3.200383186340332
-4.2973103523254395,0.307889461517334,3.187102794647217
-4.334512233734131,0.30915382504463196,3.173654317855835
-4.3721184730529785,0.31044718623161316,3.1601641178131104
-4.409926414489746,0.3117550015449524,3.146477222442627
-4.448152542114258,0.31309252977371216,3.132742404937744
-4.486669540405273,0.3144507110118866,3.118860960006714
-4.525502681732178,0.31583118438720703,3.1048436164855957
-4.564743518829346,0.31724026799201965,3.090745449066162
-4.604276657104492,0.31866979598999023,3.076479196548462
-4.644143104553223,0.3201225996017456,3.0620665550231934
-4.684479713439941,0.32160794734954834,3.047588348388672
-4.725088596343994,0.3231121599674225,3.032907009124756
-4.766112327575684,0.3246449828147888,3.0181071758270264
-4.807586193084717,0.3262086510658264,3.003201961517334
-4.849370002746582,0.32779356837272644,2.9880943298339844
-4.8915181159973145,0.3294033408164978,2.972810745239258
-4.555253028869629,0.8515295386314392,-14.078390121459961
-4.362614154815674,0.831298828125,-13.770941734313965
-4.20068883895874,0.8162690997123718,-13.547995567321777
-4.057652950286865,0.8044085502624512,-13.376289367675781
-3.927748918533325,0.7947462201118469,-13.239967346191406
-3.804882287979126,0.7861604690551758,-13.120526313781738
-3.6895620822906494,0.7788267135620117,-13.021015167236328
-3.5806987285614014,0.7725913524627686,-12.938982963562012
-3.4739620685577393,0.7665723562240601,-12.859736442565918
-3.3689253330230713,0.7606868743896484,-12.781915664672852
-3.2662014961242676,0.7550848722457886,-12.708065032958984
-3.16813588142395,0.7503412365913391,-12.647907257080078
-3.074049711227417,0.7463545203208923,-12.59980583190918
-2.9812562465667725,0.7425128221511841,-12.55348014831543
-2.8894567489624023,0.7387502193450928,-12.507830619812012
-2.798550844192505,0.7350454926490784,-12.462512969970703
-2.7086493968963623,0.7314323782920837,-12.418107032775879
-2.6206960678100586,0.7281797528266907,-12.379197120666504
-2.5352096557617188,0.7254669666290283,-12.348868370056152
-2.451190710067749,0.7230481505393982,-12.322967529296875
-2.3678081035614014,0.7206971645355225,-12.297658920288086
-2.284986972808838,0.7183958888053894,-12.272643089294434
-2.202662706375122,0.716127336025238,-12.247633934020996
-2.1208605766296387,0.7139021754264832,-12.222821235656738
-2.039597272872925,0.7117296457290649,-12.198369979858398
-1.9593511819839478,0.7097880244255066,-12.177343368530273
-1.88020920753479,0.7081360220909119,-12.160767555236816
-1.801994800567627,0.7067390084266663,-12.148061752319336
-1.724195957183838,0.7054193019866943,-12.136184692382812
-1.6466835737228394,0.7041305899620056,-12.124346733093262
-1.5694525241851807,0.702873706817627,-12.11256217956543
-1.492492914199829,0.7016473412513733,-12.100812911987305
-1.4157966375350952,0.7004505395889282,-12.08908748626709
-1.3393605947494507,0.699285089969635,-12.07741928100586
-1.2632297277450562,0.6981797218322754,-12.066306114196777
-1.1878153085708618,0.6973852515220642,-12.060091018676758
-1.1127421855926514,0.6967268586158752,-12.055760383605957
-1.0379204750061035,0.6961715817451477,-12.052746772766113
-0.9632063508033752,0.6956368684768677,-12.049626350402832
-0.8886033296585083,0.6951285600662231,-12.046501159667969
-0.814106285572052,0.6946470141410828,-12.043377876281738
-0.7397420406341553,0.6942226886749268,-12.040787696838379
-0.6656733155250549,0.69404137134552,-12.041953086853027
-0.5916877388954163,0.6939416527748108,-12.044079780578613
-0.5177213549613953,0.6938691139221191,-12.046224594116211
-0.4437673091888428,0.6938220858573914,-12.048357963562012
-0.36981770396232605,0.6937959790229797,-12.05040168762207
-0.29588475823402405,0.6938285231590271,-12.053009033203125
-0.22198285162448883,0.6940146684646606,-12.057830810546875
-0.1480862945318222,0.6944512128829956,-12.066551208496094
-0.0741036906838417,0.6950059533119202,-12.076872825622559
0.0,0.588458240032196,-12.08861255645752
0.07423930615186691,0.5889736413955688,-12.098973274230957
0.14861157536506653,0.5895121693611145,-12.109352111816406
0.2231227308511734,0.5900737643241882,-12.11974811553955
0.2977791130542755,0.5906593799591064,-12.130176544189453
0.37261027097702026,0.5913058519363403,-12.141395568847656
0.4476320445537567,0.592007577419281,-12.153286933898926
0.523017406463623,0.5929401516914368,-12.169451713562012
0.5988685488700867,0.5941213369369507,-12.190248489379883
0.6750562191009521,0.5953569412231445,-12.211688995361328
0.7516018152236938,0.5966499447822571,-12.2338285446167
0.8284820914268494,0.5979701280593872,-12.256044387817383
0.9057112336158752,0.5993220210075378,-12.278428077697754
0.9832876920700073,0.6006993055343628,-12.30084228515625
1.061295986175537,0.6021462678909302,-12.32419204711914
1.1398210525512695,0.6036955714225769,-12.349141120910645
1.219486117362976,0.6056392192840576,-12.381650924682617
1.3002148866653442,0.6078736186027527,-12.419586181640625
1.3816437721252441,0.6101914644241333,-12.458699226379395
1.463736891746521,0.6125659942626953,-12.498435974121094
1.5464454889297485,0.6149708032608032,-12.538249015808105
1.6298624277114868,0.617438018321991,-12.578787803649902
1.7141832113265991,0.6200312376022339,-12.621337890625
1.8001543283462524,0.6229937672615051,-12.670836448669434
1.88880455493927,0.6266223192214966,-12.733285903930664
1.9787709712982178,0.630404531955719,-12.798242568969727
2.069824695587158,0.6342540383338928,-12.863935470581055
2.1620569229125977,0.6381915807723999,-12.930774688720703
2.255861282348633,0.6423211693763733,-13.000848770141602
2.35274338722229,0.647038459777832,-13.082138061523438
2.453599691390991,0.6525249481201172,-13.17825984954834
2.556784152984619,0.6582845449447632,-13.279142379760742
2.664863109588623,0.6649336814880371,-13.397171020507812
2.7785940170288086,0.6725772619247437,-13.534380912780762
2.8993968963623047,0.6814639568328857,-13.695676803588867
3.031466245651245,0.6924483776092529,-13.898096084594727
3.1721596717834473,0.7047731876373291,-14.12626838684082
3.3502707481384277,0.7245604395866394,-14.502594947814941
17.160140991210938,1.0545724630355835,-13.22329044342041
2.0020101070404053,0.12245634943246841,-1.5232256650924683
1.9923136234283447,0.12129925191402435,-1.496636152267456
1.9828089475631714,0.12016894668340683,-1.4705513715744019
1.973484992980957,0.11906427890062332,-1.4449512958526611
1.9643239974975586,0.11798375099897385,-1.4198119640350342
1.9553343057632446,0.11692742258310318,-1.3951287269592285
1.9465023279190063,0.11589408665895462,-1.3708816766738892
1.9378114938735962,0.11488234251737595,-1.3470491170883179
1.9292943477630615,0.11389376223087311,-1.3236445188522339
1.9208916425704956,0.1129244714975357,-1.3006178140640259
1.9126536846160889,0.11197707802057266,-1.2779943943023682
1.9045287370681763,0.11104820668697357,-1.2557308673858643
1.8965601921081543,0.11014006286859512,-1.233847737312317
1.88870370388031,0.10924975574016571,-1.2123080492019653
1.8809914588928223,0.10837884992361069,-1.191124677658081
1.8733915090560913,0.10752519220113754,-1.1702697277069092
1.86591374874115,0.10668906569480896,-1.1497423648834229
1.8585361242294312,0.10586895793676376,-1.1295218467712402
1.8512827157974243,0.1050659567117691,-1.1096161603927612
1.8441226482391357,0.10427805781364441,-1.0900002717971802
1.8370813131332397,0.10350645333528519,-1.0706828832626343
1.8301562070846558,0.102750763297081,-1.0516561269760132
1.8233200311660767,0.10200920701026917,-1.0328980684280396
1.816575527191162,0.10128173232078552,-1.0144047737121582
1.8099232912063599,0.10056815296411514,-0.9961709976196289
1.8033761978149414,0.09986896812915802,-0.9781984090805054
1.7968934774398804,0.09918172657489777,-0.9604595303535461
1.7905216217041016,0.0985087975859642,-0.9429743885993958
1.7842307090759277,0.09784834831953049,-0.9257217645645142
1.7780400514602661,0.09720123559236526,-0.9087068438529968
1.7719107866287231,0.09656516462564468,-0.8919049501419067
1.766251564025879,0.09596216678619385,-0.8755145072937012
1.769020676612854,0.09582297503948212,-0.8634063005447388
1.7807217836380005,0.09617059677839279,-0.8556283116340637
1.792541742324829,0.09652618318796158,-0.8478090763092041
1.8044205904006958,0.09688650071620941,-0.8399179577827454
1.8164118528366089,0.09725441783666611,-0.8319778442382812
1.8284785747528076,0.09762795269489288,-0.8239694833755493
1.8406211137771606,0.09800713509321213,-0.8158912062644958
1.8528834581375122,0.09839430451393127,-0.8077604174613953
1.8652409315109253,0.09878813475370407,-0.7995637059211731
1.8777172565460205,0.0991898849606514,-0.7913088202476501
1.8902716636657715,0.09959740936756134,-0.7829762101173401
1.9029052257537842,0.10001076757907867,-0.7745643258094788
1.9156577587127686,0.10043204575777054,-0.7660872340202332
1.9285361766815186,0.10086163133382797,-0.7575450539588928
1.9415109157562256,0.10129795968532562,-0.7489234209060669
1.954611897468567,0.10174260288476944,-0.740231454372406
1.9677953720092773,0.10219329595565796,-0.731450080871582
1.9811077117919922,0.10265245288610458,-0.7225942015647888
1.9945495128631592,0.1031201034784317,-0.713661253452301
2.008124828338623,0.10359647125005722,-0.7046496868133545
2.021798610687256,0.10407974570989609,-0.695544421672821
2.0356826782226562,0.10457569360733032,-0.6863809823989868
2.0497119426727295,0.1050809770822525,-0.677133321762085
2.0638797283172607,0.10559525340795517,-0.6677961349487305
2.078172206878662,0.10611782968044281,-0.6583619117736816
2.0925233364105225,0.10664534568786621,-0.6488074064254761
2.107069969177246,0.10718480497598648,-0.6391726732254028
2.121711015701294,0.10773110389709473,-0.6294236183166504
2.1365537643432617,0.1082896739244461,-0.61958909034729
2.1515491008758545,0.10885804891586304,-0.6096509695053101
2.166642904281616,0.10943351686000824,-0.5995908379554749
2.1819469928741455,0.11002175509929657,-0.5894367098808289
2.197422981262207,0.11062082648277283,-0.5791739821434021
2.2130606174468994,0.11123024672269821,-0.5687963962554932
2.2288601398468018,0.1118500679731369,-0.5583004355430603
2.244825601577759,0.11248049139976501,-0.5476834774017334
2.261018753051758,0.11312465369701385,-0.536956787109375
2.277323007583618,0.11377675086259842,-0.526088535785675
2.29386043548584,0.11444290727376938,-0.5151035785675049
2.3105733394622803,0.1151202842593193,-0.5039845108985901
2.3275294303894043,0.1158122718334198,-0.49274176359176636
2.3446693420410156,0.11651594936847687,-0.4813581109046936
2.3619959354400635,0.11723151057958603,-0.4698302149772644
2.3795783519744873,0.11796241253614426,-0.45816725492477417
2.3972880840301514,0.11870233714580536,-0.44634005427360535
2.4153287410736084,0.11946139484643936,-0.43438223004341125
2.4335038661956787,0.12022992223501205,-0.42225298285484314
2.4520211219787598,0.12101821601390839,-0.40998390316963196
2.470672607421875,0.12181606888771057,-0.39753457903862
2.489633798599243,0.12263218313455582,-0.38492903113365173
2.5087263584136963,0.12345783412456512,-0.37213441729545593
2.5281119346618652,0.12430103123188019,-0.3591705858707428
2.5477962493896484,0.12516210973262787,-0.34603220224380493
1.6428289413452148,0.08063933253288269,-0.21286511421203613
1.5145893096923828,0.07428693771362305,-0.18680676817893982
1.5109851360321045,0.074055515229702,-0.176956906914711
1.507412075996399,0.07382872700691223,-0.16716885566711426
1.50385582447052,0.07360585778951645,-0.1574396789073944
1.5003304481506348,0.07338754832744598,-0.14776965975761414
1.49680757522583,0.07317239046096802,-0.1381547749042511
1.4933151006698608,0.0729617029428482,-0.12859660387039185
1.4898520708084106,0.07275543361902237,-0.11909373104572296
1.4863919019699097,0.07255224138498306,-0.10964285582304001
1.4829610586166382,0.07235339283943176,-0.10024496167898178
1.4795461893081665,0.07215820997953415,-0.09089792519807816
1.4761466979980469,0.07196664065122604,-0.08160066604614258
1.4727762937545776,0.07177932560443878,-0.07235285639762878
1.4694080352783203,0.07159493118524551,-0.06315206736326218
1.4660682678222656,0.07141472399234772,-0.053998492658138275
1.4627306461334229,0.07123737782239914,-0.04489009827375412
1.4594210386276245,0.07106415182352066,-0.035826776176691055
1.4561264514923096,0.07089438289403915,-0.026807067915797234
1.452846646308899,0.07072804123163223,-0.017830004915595055
1.4495818614959717,0.0705651193857193,-0.008894634433090687
1.4463318586349487,0.07040558010339737,-8.855935927824603e-17
1.4430960416793823,0.07024938613176346,0.008854837156832218
1.4398748874664307,0.07009654492139816,0.017670810222625732
1.436667799949646,0.06994699686765671,0.02644883655011654
1.433475375175476,0.06980077177286148,0.03518984466791153
1.4302846193313599,0.06965719908475876,0.04389435425400734
1.4271202087402344,0.06951749324798584,0.052563950419425964
1.4239575862884521,0.06938041746616364,0.061198700219392776
1.4208214282989502,0.06924717873334885,0.0698004812002182
1.4176867008209229,0.06911653280258179,0.07836902886629105
1.4145660400390625,0.0689890906214714,0.08690577745437622
1.4114587306976318,0.06886480748653412,0.09541155397891998
1.408353328704834,0.06874310225248337,0.10388638079166412
1.405273675918579,0.06862512975931168,0.11233282089233398
1.4021953344345093,0.06850969791412354,0.12074984610080719
1.3991304636001587,0.06839738041162491,0.12913921475410461
1.3960671424865723,0.06828758865594864,0.1375006139278412
1.393017292022705,0.06818088889122009,0.14583592116832733
1.389980435371399,0.06807726621627808,0.15414592623710632
1.386945366859436,0.06797614693641663,0.16243016719818115
1.3839352130889893,0.06787867844104767,0.17069213092327118
1.3809150457382202,0.06778311729431152,0.17892833054065704
1.377907633781433,0.06769058853387833,0.1871422976255417
1.3749138116836548,0.06760112196207047,0.19533492624759674
1.371932864189148,0.06751468032598495,0.20350702106952667
1.3689419031143188,0.06743013113737106,0.21165582537651062
1.365975260734558,0.06734916567802429,0.21978728473186493
1.3630106449127197,0.0672706812620163,0.2278987020254135
1.3600475788116455,0.06719464063644409,0.23599064350128174
1.3570970296859741,0.06712158769369125,0.24406567215919495
1.354148268699646,0.067051000893116,0.2521226406097412
1.3512014150619507,0.06698286533355713,0.2601621747016907
1.3482673168182373,0.06691773235797882,0.2681870460510254
1.3453348875045776,0.0668550431728363,0.27619582414627075
1.342415452003479,0.06679536402225494,0.2841915190219879
1.3394865989685059,0.0667375847697258,0.29217010736465454
1.3365706205368042,0.06668280065059662,0.3001369833946228
1.3336673974990845,0.066631019115448,0.3080929219722748
1.3307549953460693,0.06658113747835159,0.31603363156318665
1.3278554677963257,0.06653427332639694,0.32396483421325684
1.3249577283859253,0.06648986041545868,0.33188462257385254
1.322062373161316,0.06644794344902039,0.3397938013076782
1.3191688060760498,0.06640849262475967,0.3476928770542145
1.3162883520126343,0.06637207418680191,0.3555854856967926
1.3134000301361084,0.06633763760328293,0.36346670985221863
1.3105136156082153,0.06630568951368332,0.3713398277759552
1.307639718055725,0.06627676635980606,0.3792084753513336
1.304758071899414,0.06624983996152878,0.387067586183548
1.3018888235092163,0.06622595340013504,0.3949236571788788
1.2990117073059082,0.06620406359434128,0.40277132391929626
1.2961370944976807,0.06618472188711166,0.4106143116950989
1.2932647466659546,0.066167913377285,0.41845324635505676
1.290394902229309,0.06615366786718369,0.4262888729572296
1.2875277996063232,0.0661420002579689,0.4341219961643219
1.284664511680603,0.06613297760486603,0.4419536292552948
1.2817938327789307,0.0661260262131691,0.44978058338165283
1.2789359092712402,0.06612219661474228,0.4576106071472168
1.2760709524154663,0.06612048298120499,0.46543729305267334
1.2731986045837402,0.06612087786197662,0.47326117753982544
1.2703293561935425,0.06612392514944077,0.4810866713523865
1.2789849042892456,0.0667307898402214,0.49335891008377075
1.3079394102096558,0.0684046745300293,0.5137694478034973
1.3394540548324585,0.07022346556186676,0.5356586575508118
1.3727099895477295,0.07214535772800446,0.5587520003318787
1.407728910446167,0.0741724818944931,0.5831003785133362
1.4446488618850708,0.07631317526102066,0.6088048815727234
1.483752965927124,0.07858351618051529,0.6360331177711487
1.5254547595977783,0.0810067430138588,0.665018618106842
1.5695879459381104,0.08357549458742142,0.6957504749298096
1.6164675951004028,0.086308054625988,0.7284306883811951
1.6664544343948364,0.0892253890633583,0.7632922530174255
1.7199383974075317,0.0923503190279007,0.8005933165550232
1.7781084775924683,0.09574897587299347,0.8409826755523682
1.8404029607772827,0.09939377009868622,0.8843048214912415
1.907355546951294,0.10331619530916214,0.9309234023094177
1.9795912504196167,0.10755312442779541,0.9812650084495544
2.0589709281921387,0.11220930516719818,1.0363988876342773
2.1455037593841553,0.11728960275650024,1.0965073108673096
2.2386314868927,0.12276796996593475,1.1614809036254883
2.3400652408599854,0.12874294817447662,1.2323904037475586
2.454416275024414,0.13547450304031372,1.3119128942489624
2.5804247856140137,0.14290106296539307,1.3996899127960205
2.7227365970611572,0.15128850936889648,1.4985780715942383
2.8824150562286377,0.1607067734003067,1.609586477279663
-2.4202022552490234,0.24992184340953827,4.52787971496582
-2.3475341796875,0.2396710216999054,4.327840805053711
-2.2804338932037354,0.23022054135799408,4.143275260925293
-2.2257492542266846,0.22222661972045898,3.9858267307281494
-2.229889154434204,0.2202242761850357,3.9363045692443848
-2.2563626766204834,0.220455139875412,3.9266602993011475
-2.282900333404541,0.22069551050662994,3.9170079231262207
-2.309504508972168,0.22094549238681793,3.9073474407196045
-2.33616042137146,0.22120344638824463,3.8976480960845947
-2.362874746322632,0.22146989405155182,3.887917995452881
-2.3896641731262207,0.22174625098705292,3.8781797885894775
-2.4165148735046387,0.22203105688095093,3.868406057357788
-2.4434354305267334,0.222324937582016,3.8586063385009766
-2.47042179107666,0.2226274013519287,3.8487699031829834
-2.497499942779541,0.22294063866138458,3.838933229446411
-2.524653434753418,0.2232629954814911,3.8290650844573975
-2.5518689155578613,0.22359317541122437,3.8191416263580322
-2.5791852474212646,0.22393444180488586,3.8092169761657715
-2.6065683364868164,0.22428366541862488,3.7992353439331055
-2.634045124053955,0.22464308142662048,3.7892324924468994
-2.6616127490997314,0.22501225769519806,3.7791998386383057
-2.6892824172973633,0.22539202868938446,3.7691478729248047
-2.717031717300415,0.22578030824661255,3.759040594100952
-2.7448906898498535,0.2261795550584793,3.748915672302246
-2.7728383541107178,0.22658784687519073,3.7387397289276123
-2.800882577896118,0.2270057201385498,3.7285189628601074
-2.829044818878174,0.22743479907512665,3.7182776927948
-2.857311964035034,0.22787386178970337,3.707993745803833
-2.885688543319702,0.22832317650318146,3.6976683139801025
-2.9141759872436523,0.22878268361091614,3.68729829788208
-2.9427807331085205,0.22925281524658203,3.6768882274627686
-2.971489667892456,0.22973240911960602,3.6664164066314697
-3.000342607498169,0.23022443056106567,3.655927896499634
-3.029308795928955,0.23072639107704163,3.6453802585601807
-3.0584120750427246,0.23123997449874878,3.6347968578338623
-3.0876362323760986,0.2317638248205185,3.6241540908813477
-3.116986036300659,0.23229822516441345,3.6134531497955322
-3.146493911743164,0.2328454554080963,3.602726459503174
-3.1761152744293213,0.2334020882844925,3.591918468475342
-3.2059013843536377,0.23397181928157806,3.581082582473755
-3.235837936401367,0.23455341160297394,3.5701968669891357
-3.2659072875976562,0.23514555394649506,3.5592377185821533
-3.296140670776367,0.23575033247470856,3.548233985900879
-3.3265209197998047,0.23636643588542938,3.5371623039245605
-3.3570754528045654,0.23699568212032318,3.5260465145111084
-3.3877885341644287,0.23763686418533325,3.5148651599884033
-3.4186666011810303,0.23829033970832825,3.503620147705078
-3.4497170448303223,0.2389564961194992,3.4923133850097656
-3.4809720516204834,0.23963744938373566,3.4809720516204834
-3.5125091075897217,0.24033835530281067,3.4696664810180664
-3.5442326068878174,0.241052508354187,3.45829439163208
-3.5760788917541504,0.24177546799182892,3.446788787841797
-3.608165979385376,0.24251516163349152,3.4352595806121826
-3.640491008758545,0.24327124655246735,3.423696517944336
-3.672980308532715,0.2440386712551117,3.4120240211486816
-3.705648183822632,0.24481834471225739,3.400251626968384
-3.7386128902435303,0.24561795592308044,3.388481378555298
-3.7717270851135254,0.24642767012119293,3.376572608947754
-3.8050527572631836,0.247251495718956,3.364576816558838
-3.83858060836792,0.2480887770652771,3.352480411529541
-3.8724253177642822,0.24894678592681885,3.34037709236145
-3.9064764976501465,0.24981828033924103,3.3281638622283936
-3.9407169818878174,0.2507021129131317,3.3158211708068848
-3.975235939025879,0.251603901386261,3.3034188747406006
-4.009978294372559,0.25252002477645874,3.2909042835235596
-4.044971942901611,0.2534521520137787,3.278294324874878
-4.080239295959473,0.25440162420272827,3.2656009197235107
-4.115799427032471,0.25536951422691345,3.2528324127197266
-4.1515960693359375,0.2563522756099701,3.2399375438690186
-4.187690258026123,0.2573535144329071,3.226957321166992
-4.224039077758789,0.2583705484867096,3.2138521671295166
-4.260732650756836,0.2594088017940521,3.200684070587158
-4.297715663909912,0.2604648172855377,3.1874029636383057
-4.3349199295043945,0.26153433322906494,3.173952579498291
-4.37252950668335,0.2626284956932068,3.160461187362671
-4.410339832305908,0.2637347877025604,3.1467723846435547
-4.448568344116211,0.2648662328720093,3.13303542137146
-4.487090110778809,0.26601526141166687,3.1191532611846924
-4.525927543640137,0.2671831548213959,3.105135202407837
-4.5651726722717285,0.2683752179145813,3.091035842895508
-4.604708194732666,0.2695844769477844,3.0767674446105957
-4.6445770263671875,0.2708134353160858,3.0623526573181152
-4.684914588928223,0.2720698416233063,3.0478713512420654
-4.725525856018066,0.2733422815799713,3.0331878662109375
-4.766550064086914,0.2746388018131256,3.0183846950531006
-4.8080267906188965,0.2759615480899811,3.003477096557617
-4.849813938140869,0.2773022949695587,2.988367795944214
-4.891963005065918,0.2786639630794525,2.973081350326538
-14.61178207397461,0.7914800047874451,-7.131575584411621
-14.721824645996094,0.79985111951828,-7.29747200012207
-15.204814910888672,0.8286283016204834,-7.653460502624512
-15.528936386108398,0.8489301204681396,-7.936407566070557
-16.02190589904785,0.8786514401435852,-8.312728881835938
-16.346599578857422,0.8993378281593323,-8.608901023864746
-16.84031105041504,0.9295215010643005,-9.001333236694336
-17.334463119506836,0.959963321685791,-9.402666091918945
-17.829002380371094,0.9906661510467529,-9.812976837158203
-18.323936462402344,1.0216366052627563,-10.232378005981445
-18.819259643554688,1.0528802871704102,-10.660979270935059
-19.315011978149414,1.0844058990478516,-11.098915100097656
-19.8111515045166,1.1162173748016357,-11.546282768249512
-20.30763053894043,1.1483185291290283,-12.003171920776367
-20.804580688476562,1.1807235479354858,-12.469785690307617
-4.556411266326904,0.7204824686050415,-14.081969261169434
-4.3645100593566895,0.7034919857978821,-13.77692699432373
-4.201299667358398,0.6905732750892639,-13.549965858459473
-4.058602809906006,0.6805994510650635,-13.379420280456543
-3.9285035133361816,0.6723961234092712,-13.242510795593262
-3.805171012878418,0.6650547981262207,-13.121521949768066
-3.690556526184082,0.6589783430099487,-13.024523735046387
-3.581704616546631,0.6537100076675415,-12.942617416381836
-3.4748923778533936,0.6486086249351501,-12.863180160522461
-3.3697688579559326,0.6436176300048828,-12.785116195678711
-3.266828775405884,0.6388405561447144,-12.710506439208984
-3.168652296066284,0.6348087191581726,-12.649969100952148
-3.0747127532958984,0.6314691305160522,-12.602522850036621
-2.981865167617798,0.6282115578651428,-12.55604362487793
-2.890026569366455,0.6250237822532654,-12.510297775268555
-2.799102783203125,0.6218894124031067,-12.464970588684082
-2.709157705307007,0.6188265681266785,-12.42043685913086
-2.6211459636688232,0.6160647869110107,-12.381321907043457
-2.535679340362549,0.6137781143188477,-12.351157188415527
-2.4516241550445557,0.6117265820503235,-12.32514762878418
-2.368191719055176,0.6097284555435181,-12.299651145935059
-2.2853481769561768,0.6077791452407837,-12.274582862854004
-2.20300555229187,0.6058583855628967,-12.249539375305176
-2.121201276779175,0.6039788722991943,-12.224783897399902
-2.0399904251098633,0.6021602749824524,-12.200722694396973
-1.9597173929214478,0.6005139946937561,-12.179619789123535
-1.8805879354476929,0.5991250276565552,-12.163216590881348
-1.802284598350525,0.5979187488555908,-12.150015830993652
-1.7244343757629395,0.596788763999939,-12.137863159179688
-1.6469049453735352,0.5956962704658508,-12.1259765625
-1.5696601867675781,0.5946316719055176,-12.114165306091309
-1.4926881790161133,0.5935932993888855,-12.102396011352539
-1.4159775972366333,0.5925790071487427,-12.090633392333984
-1.339597225189209,0.5916219353675842,-12.07955265045166
-1.2634789943695068,0.5906989574432373,-12.068686485290527
-1.1880508661270142,0.590027391910553,-12.062482833862305
-1.1129684448242188,0.5894733667373657,-12.058212280273438
-1.0380998849868774,0.5889855027198792,-12.054829597473145
-0.9633656740188599,0.5885288119316101,-12.051619529724121
-0.88875412940979,0.5881012678146362,-12.048545837402344
-0.8142488598823547,0.5876970887184143,-12.045487403869629
-0.7398642301559448,0.5873322486877441,-12.042776107788086
-0.6657902002334595,0.5871849060058594,-12.0440673828125
-0.5917884707450867,0.5870974063873291,-12.046131134033203
-0.5178066492080688,0.5870327949523926,-12.048209190368652
-0.44384053349494934,0.5869932174682617,-12.050346374511719
-0.369890958070755,0.586990475654602,-12.052787780761719
-0.29594549536705017,0.5870223045349121,-12.0554838180542
-0.22202840447425842,0.5871797204017639,-12.06030559539795
-0.14811444282531738,0.5875401496887207,-12.06884479522705
-0.07411254197359085,0.5879679918289185,-12.078315734863281
0.0,0.4811399579048157,-12.083584785461426
0.07420840859413147,0.4815613329410553,-12.093938827514648
0.14854967594146729,0.4820014536380768,-12.10430908203125
0.22302977740764618,0.482460618019104,-12.114699363708496
0.2976545989513397,0.48293861746788025,-12.125103950500488
0.37255582213401794,0.4835987985134125,-12.139620780944824
0.4476872980594635,0.48430323600769043,-12.154787063598633
0.5230802297592163,0.4850645661354065,-12.170913696289062
0.5987585186958313,0.4858831763267517,-12.188009262084961
0.6747788190841675,0.4867830276489258,-12.206670761108398
0.7512925863265991,0.4878399968147278,-12.228795051574707
0.828140914440155,0.488919198513031,-12.250997543334961
0.905337929725647,0.4900243878364563,-12.273366928100586
0.9828919768333435,0.4911552965641022,-12.295892715454102
1.061174988746643,0.49248042702674866,-12.322787284851074
1.1400578022003174,0.4939064383506775,-12.351705551147461
1.2195630073547363,0.49542495608329773,-12.382431030273438
1.299719214439392,0.4970318377017975,-12.414851188659668
1.3810051679611206,0.4988865852355957,-12.452940940856934
1.4630591869354248,0.5008276104927063,-12.49264907836914
1.545728087425232,0.5027933120727539,-12.532432556152344
1.6292085647583008,0.5048421025276184,-12.57374095916748
1.7142713069915771,0.5071920156478882,-12.621987342834473
1.8004555702209473,0.5096744894981384,-12.672957420349121
1.888096809387207,0.5123651623725891,-12.728514671325684
1.977771282196045,0.5153904557228088,-12.791776657104492
2.0687711238861084,0.5185356736183167,-12.85738754272461
2.161160707473755,0.5218040943145752,-12.925413131713867
2.255882501602173,0.5254033207893372,-13.000970840454102
2.353254556655884,0.529371976852417,-13.084981918334961
2.4533467292785645,0.5336896777153015,-13.176900863647461
2.556748867034912,0.5384485125541687,-13.278959274291992
2.6649224758148193,0.5439068078994751,-13.397469520568848
2.7785873413085938,0.5501455664634705,-13.534348487854004
2.8987791538238525,0.5572971701622009,-13.692758560180664
3.030182361602783,0.5661609768867493,-13.892210960388184
3.172293186187744,0.5765064358711243,-14.126863479614258
3.3500423431396484,0.5926270484924316,-14.501605987548828
13.847794532775879,0.6961016058921814,-10.670856475830078
2.001574754714966,0.10014364123344421,-1.5228943824768066
1.9918816089630127,0.09919743984937668,-1.4963115453720093
1.9823799133300781,0.0982731282711029,-1.4702332019805908
1.9730582237243652,0.09736975282430649,-1.444638729095459
1.9639002084732056,0.0964861512184143,-1.4195055961608887
1.9549131393432617,0.09562233090400696,-1.394828200340271
1.9460842609405518,0.09477733075618744,-1.3705872297286987
1.9373958110809326,0.09394996613264084,-1.3467602729797363
1.9288814067840576,0.09314155578613281,-1.3233612775802612
1.9204808473587036,0.09234888851642609,-1.3003395795822144
1.912245273590088,0.09157414734363556,-1.2777215242385864
1.9041228294372559,0.09081455320119858,-1.2554631233215332
1.896155595779419,0.09007187187671661,-1.2335845232009888
1.888301134109497,0.08934380114078522,-1.2120496034622192
1.8805917501449585,0.08863162994384766,-1.1908715963363647
1.8729946613311768,0.08793357014656067,-1.170021891593933
1.8655188083648682,0.08724980801343918,-1.1494989395141602
1.8581432104110718,0.08657915145158768,-1.12928307056427
1.8508915901184082,0.08592246472835541,-1.1093817949295044
1.8437341451644897,0.08527817577123642,-1.0897705554962158
1.8366942405700684,0.08464716374874115,-1.0704573392868042
1.8297711610794067,0.0840291902422905,-1.051434874534607
1.82293701171875,0.08342277258634567,-1.0326809883117676
1.816194772720337,0.08282788097858429,-1.0141921043395996
1.809544324874878,0.08224433660507202,-0.9959624409675598
1.8029989004135132,0.0816725641489029,-0.9779937863349915
1.796518325805664,0.08111057430505753,-0.9602590203285217
1.7901477813720703,0.08056025952100754,-0.9427775144577026
1.7838586568832397,0.08002015948295593,-0.9255287051200867
1.7776696681976318,0.07949096709489822,-0.9085175395011902
1.7715421915054321,0.07897081971168518,-0.891719400882721
1.7659401893615723,0.07848017662763596,-0.8753601312637329
1.7688357830047607,0.07837197184562683,-0.8633160591125488
1.7805404663085938,0.07865649461746216,-0.8555412292480469
1.7923598289489746,0.07894735038280487,-0.8477230668067932
1.804237961769104,0.07924207299947739,-0.8398329019546509
1.8162282705307007,0.07954299449920654,-0.8318937420845032
1.8282945156097412,0.07984854280948639,-0.8238865733146667
1.8404368162155151,0.08015871047973633,-0.8158095479011536
1.8526973724365234,0.0804753452539444,-0.807679295539856
1.8650544881820679,0.08079748600721359,-0.7994837760925293
1.8775300979614258,0.08112610131502151,-0.7912299633026123
1.890083909034729,0.08145943284034729,-0.7828983664512634
1.902717113494873,0.08179755508899689,-0.7744877338409424
1.9154709577560425,0.08214222639799118,-0.7660125494003296
1.9283523559570312,0.08249375969171524,-0.757472813129425
1.9413259029388428,0.0828506276011467,-0.7488520741462708
1.9544260501861572,0.08321431279182434,-0.7401610612869263
1.9676096439361572,0.08358298987150192,-0.7313809990882874
1.9809205532073975,0.08395852148532867,-0.722525954246521
1.9943623542785645,0.08434106409549713,-0.7135942578315735
2.0079376697540283,0.08473073691129684,-0.704584002494812
2.0216362476348877,0.0851271003484726,-0.6954885125160217
2.0355210304260254,0.08553282171487808,-0.6863265037536621
2.049546241760254,0.0859459713101387,-0.6770786643028259
2.063692569732666,0.08636574447154999,-0.6677355766296387
2.07796049118042,0.08679217845201492,-0.6582947969436646
2.0923101902008057,0.08722362667322159,-0.6487413048744202
2.1068551540374756,0.08766485005617142,-0.6391075253486633
2.1214957237243652,0.08811168372631073,-0.6293597221374512
2.136337995529175,0.08856857568025589,-0.6195265054702759
2.151332378387451,0.08903346210718155,-0.6095895171165466
2.1664257049560547,0.089504174888134,-0.5995306968688965
2.181729316711426,0.08998532593250275,-0.5893778800964355
2.19720458984375,0.09047534316778183,-0.5791164636611938
2.212841033935547,0.09097380191087723,-0.5687399506568909
2.228639602661133,0.09148076176643372,-0.5582451224327087
2.2446043491363525,0.09199641644954681,-0.5476295351982117
2.2607972621917725,0.09252332895994186,-0.5369042158126831
2.2771005630493164,0.09305669367313385,-0.5260371565818787
2.2936384677886963,0.09360162168741226,-0.5150537490844727
2.3103525638580322,0.09415575116872787,-0.5039363503456116
2.3273074626922607,0.0947217345237732,-0.49269476532936096
2.344446897506714,0.09529732167720795,-0.48131248354911804
2.3617734909057617,0.09588263183832169,-0.4697859287261963
2.3793540000915527,0.09648042172193527,-0.4581240713596344
2.397063970565796,0.09708566963672638,-0.4462983012199402
2.4151055812835693,0.0977066159248352,-0.4343421161174774
2.433279275894165,0.09833519160747528,-0.42221400141716003
2.451789617538452,0.09897972643375397,-0.40994521975517273
2.4704043865203857,0.09963087737560272,-0.397491455078125
2.4893550872802734,0.10029801726341248,-0.3848859667778015
2.5084457397460938,0.10097330063581467,-0.37209275364875793
2.527830123901367,0.10166297107934952,-0.35913053154945374
2.547513246536255,0.10236727446317673,-0.3459937870502472
1.6425279378890991,0.06594833731651306,-0.21282611787319183
1.5142865180969238,0.06075222045183182,-0.18676944077014923
1.5106828212738037,0.060562945902347565,-0.17692150175571442
1.5071104764938354,0.06037748232483864,-0.16713540256023407
1.5035555362701416,0.06019523739814758,-0.1574082374572754
1.5000306367874146,0.0600166954100132,-0.14774012565612793
1.4965087175369263,0.059840746223926544,-0.1381271928548813
1.4930170774459839,0.05966845527291298,-0.12857094407081604
1.489554762840271,0.05949976667761803,-0.11906996369361877
1.4860954284667969,0.05933360010385513,-0.10962098836898804
1.4826653003692627,0.059170980006456375,-0.10022496432065964
1.4792512655258179,0.059011366218328476,-0.09087980538606644
1.4758522510528564,0.05885469168424606,-0.0815843939781189
1.4724829196929932,0.058701518923044205,-0.07233844697475433
1.4691154956817627,0.05855073034763336,-0.06313949078321457
1.4657764434814453,0.05840335041284561,-0.053987741470336914
1.4624395370483398,0.05825832113623619,-0.04488116502761841
1.4591306447982788,0.05811666324734688,-0.0358196459710598
1.4558367729187012,0.0579778254032135,-0.026801735162734985
1.452557921409607,0.05784180387854576,-0.017826462164521217
1.4492937326431274,0.057708561420440674,-0.008892866782844067
1.4460443258285522,0.05757809057831764,-8.8541750257366e-17
1.4428092241287231,0.05745035782456398,0.00885307788848877
1.4395886659622192,0.05732535570859909,0.017667297273874283
1.43638277053833,0.057203080505132675,0.026443589478731155
1.4331904649734497,0.05708347260951996,0.035182852298021317
1.4300005435943604,0.05696607381105423,0.04388563707470894
1.4268369674682617,0.0568518228828907,0.05255351960659027
1.4236749410629272,0.056739725172519684,0.06118655204772949
1.420539379119873,0.056630756705999374,0.06978662312030792
1.417405366897583,0.056523919105529785,0.07835347950458527
1.41428542137146,0.056419700384140015,0.08688853681087494
1.4111790657043457,0.05631806701421738,0.09539264440536499
1.4080740213394165,0.05621853098273277,0.10386577993631363
1.404995322227478,0.0561220645904541,0.11231056600809097
1.4019174575805664,0.05602765828371048,0.12072591483592987
1.3988531827926636,0.055935803800821304,0.12911361455917358
1.395790696144104,0.05584602430462837,0.13747338950634003
1.392741084098816,0.055758751928806305,0.14580699801445007
1.389704942703247,0.05567400902509689,0.15411536395549774
1.386670470237732,0.055591318756341934,0.16239796578884125
1.3836607933044434,0.05551160126924515,0.17065829038619995
1.380641222000122,0.055433452129364014,0.17889286577701569
1.3776346445083618,0.055357787758111954,0.1871052086353302
1.3746414184570312,0.05528462305665016,0.1952962428331375
1.3716609477996826,0.05521392822265625,0.20346668362617493
1.3686708211898804,0.055144794285297394,0.21161392331123352
1.365704894065857,0.05507858470082283,0.2197437882423401
1.3627408742904663,0.05501439422369003,0.22785359621047974
1.3597782850265503,0.05495220422744751,0.23594391345977783
1.3568284511566162,0.05489246919751167,0.2440173625946045
1.353880524635315,0.054834749549627304,0.2520727813243866
1.3509339094161987,0.054779019206762314,0.26011067628860474
1.3480006456375122,0.0547257624566555,0.2681339979171753
1.3450688123703003,0.05467449501156807,0.2761411964893341
1.3421497344970703,0.054625678807497025,0.28413528203964233
1.3392215967178345,0.05457843095064163,0.2921123206615448
1.3363062143325806,0.05453362688422203,0.3000775873661041
1.3334035873413086,0.054491277784109116,0.30803197622299194
1.3304919004440308,0.054450493305921555,0.31597113609313965
1.3275928497314453,0.05441216751933098,0.3239007592201233
1.3246958255767822,0.05437585711479187,0.3318190574645996
1.321800708770752,0.05434156209230423,0.3397265672683716
1.3189078569412231,0.05430930107831955,0.3476240932941437
1.316028118133545,0.054279524832963943,0.3555152118206024
1.3131401538848877,0.054251354187726974,0.3633948266506195
1.3102543354034424,0.05422522872686386,0.37126636505126953
1.307381510734558,0.05420158803462982,0.37913358211517334
1.3045001029968262,0.05417955666780472,0.38699105381965637
1.3016313314437866,0.054160017520189285,0.39484554529190063
1.2987550497055054,0.05414212867617607,0.40269172191619873
1.295880913734436,0.054126303642988205,0.4105331599712372
1.2930094003677368,0.05411257594823837,0.41837063431739807
1.29013991355896,0.05410091578960419,0.4262046813964844
1.2872735261917114,0.054091379046440125,0.4340362846851349
1.2844104766845703,0.05408398434519768,0.4418662488460541
1.2815405130386353,0.05407830700278282,0.4496917128562927
1.2786831855773926,0.054075177758932114,0.45752015709877014
1.2758187055587769,0.054073773324489594,0.4653453230857849
1.2729469537734985,0.05407409742474556,0.47316765785217285
1.2700780630111694,0.054076582193374634,0.48099151253700256
1.2790695428848267,0.054587289690971375,0.49339157342910767
1.3080610036849976,0.05595806613564491,0.5138172507286072
1.3395888805389404,0.057446353137493134,0.5357125997543335
1.3728575706481934,0.05901896208524704,0.5588120818138123
1.407892107963562,0.06067778170108795,0.5831680297851562
1.4448273181915283,0.06242946907877922,0.6088800430297852
1.4839478731155396,0.06428727507591248,0.6361166834831238
1.5256805419921875,0.06627076119184494,0.665117084980011
1.5698778629302979,0.06837473809719086,0.6958790421485901
1.6167863607406616,0.07061117887496948,0.7285743951797485
1.6668022871017456,0.0729987844824791,0.7634515762329102
1.7203394174575806,0.07555724680423737,0.8007799983024597
1.7785450220108032,0.0783388540148735,0.8411891460418701
1.8408527374267578,0.08132082968950272,0.884520947933197
1.9078577756881714,0.08453162759542465,0.9311685562133789
1.98014497756958,0.08799965679645538,0.9815394878387451
2.0594308376312256,0.0918041542172432,1.036630392074585
2.1460089683532715,0.09596177190542221,1.0967655181884766
2.2391886711120605,0.10044530779123306,1.161769986152649
2.3409252166748047,0.10534634441137314,1.2328431606292725
2.4554054737091064,0.11085851490497589,1.3124415874481201
2.581557035446167,0.11693983525037766,1.4003040790557861
2.7240097522735596,0.12380707263946533,1.4992787837982178
2.8833751678466797,0.1314968317747116,1.6101226806640625
-2.420172691345215,0.2044256627559662,4.527824401855469
-2.347482919692993,0.19603903591632843,4.327746391296387
-2.280374765396118,0.1883082240819931,4.143167495727539
-2.2256009578704834,0.181762233376503,3.9855613708496094
-2.2293567657470703,0.18009348213672638,3.9353649616241455
-2.255823850631714,0.18028226494789124,3.925722599029541
-2.282355546951294,0.18047887086868286,3.9160733222961426
-2.3089537620544434,0.18068332970142365,3.9064157009124756
-2.3356025218963623,0.18089421093463898,3.8967175483703613
-2.3623111248016357,0.1811121553182602,3.886990547180176
-2.389094114303589,0.1813381463289261,3.8772544860839844
-2.41593861579895,0.18157105147838593,3.867483377456665
-2.4428515434265137,0.18181128799915314,3.8576838970184326
-2.469831943511963,0.1820586770772934,3.847850799560547
-2.496903419494629,0.18231482803821564,3.8380162715911865
-2.524049758911133,0.18257839977741241,3.8281495571136475
-2.551258087158203,0.18284836411476135,3.818227767944336
-2.57856822013855,0.18312746286392212,3.808305501937866
-2.6059436798095703,0.18341298401355743,3.7983250617980957
-2.633413553237915,0.1837068647146225,3.7883241176605225
-2.66097354888916,0.18400870263576508,3.778292179107666
-2.6886355876922607,0.18431919813156128,3.7682411670684814
-2.716379404067993,0.18463681638240814,3.7581381797790527
-2.7442307472229004,0.18496324121952057,3.748014450073242
-2.7721712589263916,0.18529710173606873,3.737840175628662
-2.800208568572998,0.18563881516456604,3.7276217937469482
-2.8283636569976807,0.18598967790603638,3.7173824310302734
-2.856623649597168,0.18634870648384094,3.7071003913879395
-2.884992837905884,0.18671609461307526,3.6967766284942627
-2.9134714603424072,0.18709176778793335,3.6864070892333984
-2.942070245742798,0.1874762773513794,3.6760005950927734
-2.9707701206207275,0.18786834180355072,3.6655287742614746
-2.9996159076690674,0.1882706880569458,3.6550424098968506
-3.0285754203796387,0.1886812001466751,3.6444976329803467
-3.0576720237731934,0.1891012042760849,3.6339173316955566
-3.0868871212005615,0.18952949345111847,3.623274803161621
-3.1162302494049072,0.18996651470661163,3.612576723098755
-3.1457293033599854,0.1904139220714569,3.601850986480713
-3.1753437519073486,0.19086913764476776,3.591046094894409
-3.205122709274292,0.1913350522518158,3.5802125930786133
-3.235053062438965,0.191810742020607,3.569330930709839
-3.265115261077881,0.19229497015476227,3.5583744049072266
-3.2953402996063232,0.1927894800901413,3.5473721027374268
-3.3257126808166504,0.19329328835010529,3.5363028049468994
-3.3562586307525635,0.19380781054496765,3.525188684463501
-3.3869640827178955,0.19433213770389557,3.514009952545166
-3.417833089828491,0.19486643373966217,3.5027658939361572
-3.4488768577575684,0.19541124999523163,3.4914627075195312
-3.4801247119903564,0.1959681361913681,3.4801247119903564
-3.5116536617279053,0.19654129445552826,3.4688215255737305
-3.543370485305786,0.1971253603696823,3.4574532508850098
-3.5752058029174805,0.19771640002727509,3.4459474086761475
-3.6072816848754883,0.19832110404968262,3.434417724609375
-3.6395983695983887,0.19893939793109894,3.4228570461273193
-3.67207932472229,0.19956694543361664,3.411187171936035
-3.7047371864318848,0.20020443201065063,3.3994157314300537
