10.04043960571289,-0.1339554786682129,-17.472986221313477
10.050973892211914,-0.13338451087474823,-17.367755889892578
10.06112003326416,-0.1328156739473343,-17.262903213500977
10.071419715881348,-0.13225607573986053,-17.159351348876953
10.081632614135742,-0.13170237839221954,-17.056663513183594
10.091662406921387,-0.13115327060222626,-16.954666137695312
10.10166072845459,-0.1306106150150299,-16.85360336303711
10.111577033996582,-0.1300736516714096,-16.753372192382812
10.121356010437012,-0.1295415759086609,-16.653867721557617
10.131081581115723,-0.12901537120342255,-16.55521583557129
10.140750885009766,-0.12849491834640503,-16.4573974609375
10.150298118591309,-0.12797929346561432,-16.360292434692383
10.159939765930176,-0.12747111916542053,-16.264236450195312
10.16926097869873,-0.12696512043476105,-16.16855239868164
10.178742408752441,-0.12646719813346863,-16.073989868164062
10.187837600708008,-0.1259704828262329,-15.979679107666016
10.197168350219727,-0.12548260390758514,-15.886580467224121
10.206274032592773,-0.12499779462814331,-15.793963432312012
10.21541690826416,-0.12451919168233871,-15.702223777770996
10.224388122558594,-0.12404417246580124,-15.611026763916016
10.233196258544922,-0.12357275933027267,-15.520377159118652
10.242206573486328,-0.12310931086540222,-15.430819511413574
10.250861167907715,-0.1226470097899437,-15.341497421264648
10.259600639343262,-0.12219111621379852,-15.253067016601562
10.268294334411621,-0.1217399537563324,-15.165316581726074
10.276918411254883,-0.12129317224025726,-15.078203201293945
10.28551197052002,-0.12085118889808655,-14.99177360534668
10.29387092590332,-0.12041152268648148,-14.905721664428711
10.30238151550293,-0.1199786365032196,-14.820597648620605
10.310649871826172,-0.11954787373542786,-14.735822677612305
10.318927764892578,-0.11912210285663605,-14.651752471923828
10.327278137207031,-0.11870197206735611,-14.568462371826172
10.33534049987793,-0.11828327924013138,-14.485434532165527
10.343478202819824,-0.11787013709545135,-14.40317440032959
10.351485252380371,-0.11746013909578323,-14.321383476257324
10.35958480834961,-0.117055743932724,-14.240362167358398
10.367545127868652,-0.11665427684783936,-14.159781455993652
10.375324249267578,-0.11625523120164871,-14.07957935333252
10.383259773254395,-0.11586232483386993,-14.000205039978027
10.391021728515625,-0.11547181010246277,-13.92120361328125
10.398667335510254,-0.11508429050445557,-13.842646598815918
10.406404495239258,-0.1147020161151886,-13.76480484008789
10.414069175720215,-0.11432310193777084,-13.687447547912598
10.421648979187012,-0.11394737660884857,-13.610553741455078
10.429205894470215,-0.11357547342777252,-13.534199714660645
10.436660766601562,-0.11320647597312927,-13.458271980285645
10.444099426269531,-0.11284127086400986,-13.3828763961792
10.451471328735352,-0.11247926950454712,-13.307941436767578
10.458776473999023,-0.11212042719125748,-13.233460426330566
10.466081619262695,-0.11176539957523346,-13.159509658813477
10.473315238952637,-0.1114133894443512,-13.085992813110352
10.480513572692871,-0.11106475442647934,-13.012951850891113
10.487706184387207,-0.11071973294019699,-12.940411567687988
10.494705200195312,-0.11037632077932358,-12.868138313293457
10.501823425292969,-0.11003775894641876,-12.7965087890625
10.508804321289062,-0.10970132052898407,-12.725202560424805
10.515746116638184,-0.10936799645423889,-12.654335975646973
10.522665977478027,-0.10903792083263397,-12.5839204788208
10.52961254119873,-0.10871156305074692,-12.514010429382324
10.536399841308594,-0.10838694870471954,-12.444376945495605
10.543302536010742,-0.10806689411401749,-12.375341415405273
10.549965858459473,-0.10774769634008408,-12.306479454040527
10.556770324707031,-0.10743321478366852,-12.23823070526123
10.563438415527344,-0.10712059587240219,-12.170268058776855
10.570110321044922,-0.10681121051311493,-12.10274600982666
10.57668685913086,-0.10650404542684555,-12.03554916381836
10.583292961120605,-0.10620030015707016,-11.968811988830566
10.589784622192383,-0.10589852184057236,-11.90236759185791
10.596297264099121,-0.10560000687837601,-11.836363792419434
10.602706909179688,-0.10530351102352142,-11.77065658569336
10.609175682067871,-0.10501059144735336,-11.705421447753906
10.615565299987793,-0.1047198548913002,-11.64050006866455
10.62186336517334,-0.10443115234375,-11.575875282287598
10.628205299377441,-0.10414578765630722,-11.511691093444824
10.63447093963623,-0.10386253893375397,-11.447809219360352
10.640667915344238,-0.10358145833015442,-11.384238243103027
10.646921157836914,-0.10330373793840408,-11.3211030960083
10.653136253356934,-0.10302842408418655,-11.25830078125
10.659172058105469,-0.1027541309595108,-11.1956787109375
10.665281295776367,-0.10248326510190964,-11.133498191833496
10.671463012695312,-0.10221578180789948,-11.071752548217773
10.677483558654785,-0.10194942355155945,-11.010194778442383
10.683467864990234,-0.10168534517288208,-10.94895076751709
10.689422607421875,-0.10142360627651215,-10.88802433013916
10.695350646972656,-0.10116419941186905,-10.827414512634277
10.701379776000977,-0.1009082943201065,-10.767245292663574
10.707511901855469,-0.10065589100122452,-10.707511901855469
10.713427543640137,-0.10040392726659775,-10.6478910446167
10.719316482543945,-0.10015420615673065,-10.588571548461914
10.725165367126465,-0.0999065488576889,-10.529534339904785
10.730995178222656,-0.09966114908456802,-10.470796585083008
10.736797332763672,-0.09941788762807846,-10.412348747253418
10.742572784423828,-0.09917674958705902,-10.3541841506958
10.748315811157227,-0.09893768280744553,-10.296298027038574
10.754029273986816,-0.09870066493749619,-10.238686561584473
10.759716033935547,-0.0984657034277916,-10.181351661682129
10.76538372039795,-0.09823286533355713,-10.124295234680176
10.771023750305176,-0.09800202399492264,-10.067506790161133
10.776633262634277,-0.09777315706014633,-10.010979652404785
10.782215118408203,-0.09754624962806702,-9.95471477508545
10.787775039672852,-0.09732133895158768,-9.898713111877441
10.793307304382324,-0.09709837287664413,-9.84296703338623
10.798810005187988,-0.09687728434801102,-9.787470817565918
10.80429458618164,-0.09665817022323608,-9.732232093811035
10.809746742248535,-0.0964408814907074,-9.677236557006836
10.815186500549316,-0.09622557461261749,-9.622496604919434
10.820590019226074,-0.09601203352212906,-9.56799030303955
10.82597827911377,-0.09580040723085403,-9.513731956481934
10.83133602142334,-0.09559054672718048,-9.459705352783203
10.83667278289795,-0.09538251906633377,-9.405917167663574
10.841991424560547,-0.0951763391494751,-9.35236644744873
10.847281455993652,-0.09497188031673431,-9.299040794372559
10.852550506591797,-0.09476921707391739,-9.24594497680664
10.85779094696045,-0.09456824511289597,-9.193069458007812
10.86302375793457,-0.09436912834644318,-9.140429496765137
10.868226051330566,-0.0941716730594635,-9.088003158569336
10.873407363891602,-0.09397591650485992,-9.035796165466309
10.878559112548828,-0.09378178417682648,-8.983797073364258
10.883703231811523,-0.09358945488929749,-8.932024002075195
10.888816833496094,-0.09339870512485504,-8.880455017089844
10.893909454345703,-0.09320960938930511,-8.829094886779785
10.898984909057617,-0.0930221825838089,-8.777944564819336
10.904050827026367,-0.09283646196126938,-8.727007865905762
10.909086227416992,-0.09265226870775223,-8.676264762878418
10.914091110229492,-0.09246958047151566,-8.625714302062988
10.919087409973145,-0.09228857606649399,-8.575370788574219
10.924063682556152,-0.09210913628339767,-8.525222778320312
10.929017066955566,-0.09193123131990433,-8.475266456604004
10.933968544006348,-0.09175501018762589,-8.425515174865723
10.938883781433105,-0.09158018231391907,-8.375941276550293
10.943782806396484,-0.09140689671039581,-8.326556205749512
10.94865894317627,-0.09123510122299194,-8.277355194091797
10.953529357910156,-0.09106488525867462,-8.228346824645996
10.958377838134766,-0.09089614450931549,-8.17951774597168
10.963194847106934,-0.090728759765625,-8.130859375
10.96800422668457,-0.09056292474269867,-8.082386016845703
10.972804069519043,-0.09039860963821411,-8.034095764160156
10.977571487426758,-0.09023561328649521,-7.985968589782715
10.982332229614258,-0.09007413685321808,-7.938021659851074
10.987072944641113,-0.08991405367851257,-7.890243053436279
10.991805076599121,-0.08975545316934586,-7.842639923095703
10.996503829956055,-0.08959811180830002,-7.795191764831543
11.001193046569824,-0.08944222331047058,-7.7479143142700195
11.005875587463379,-0.08928778767585754,-7.700807094573975
11.010538101196289,-0.08913468569517136,-7.6538591384887695
11.015177726745605,-0.08898290246725082,-7.607067108154297
11.01979923248291,-0.08883244544267654,-7.560431480407715
11.024410247802734,-0.0886833667755127,-7.5139570236206055
11.02901554107666,-0.08853568881750107,-7.4676432609558105
11.03359603881836,-0.08838927000761032,-7.421477794647217
11.038158416748047,-0.08824414014816284,-7.375462055206299
11.042710304260254,-0.08810034394264221,-7.329599380493164
11.04724407196045,-0.08795780688524246,-7.283883094787598
11.051765441894531,-0.08781658858060837,-7.238316059112549
11.056269645690918,-0.08767661452293396,-7.192892074584961
11.060762405395508,-0.08753792941570282,-7.1476149559021
11.065245628356934,-0.08740054816007614,-7.10248327255249
11.069708824157715,-0.08726436644792557,-7.057488441467285
11.074161529541016,-0.08712945878505707,-7.012635707855225
11.078596115112305,-0.08699574321508408,-6.967917442321777
11.08301830291748,-0.08686327189207077,-6.923337459564209
11.087433815002441,-0.08673206716775894,-6.878896236419678
11.091828346252441,-0.08660200238227844,-6.8345842361450195
11.096213340759277,-0.08647318184375763,-6.790406703948975
11.10057544708252,-0.08634547144174576,-6.746353626251221
11.104941368103027,-0.08621907234191895,-6.70244026184082
11.109285354614258,-0.08609379082918167,-6.658649444580078
11.113622665405273,-0.0859697237610817,-6.614988803863525
11.117935180664062,-0.08584672212600708,-6.571445941925049
11.12224006652832,-0.08572491258382797,-6.528029918670654
11.126534461975098,-0.08560427278280258,-6.484737873077393
11.130821228027344,-0.08548480272293091,-6.441568851470947
11.135098457336426,-0.08536648750305176,-6.398521900177002
11.139352798461914,-0.08524921536445618,-6.355586528778076
11.143597602844238,-0.08513308316469193,-6.312770366668701
11.147831916809082,-0.08501807600259781,-6.270070552825928
11.152061462402344,-0.08490421622991562,-6.227488994598389
11.156279563903809,-0.08479146659374237,-6.185020923614502
11.160487174987793,-0.08467981219291687,-6.142665863037109
11.164671897888184,-0.08456916362047195,-6.100415229797363
11.168848037719727,-0.08445961028337479,-6.0582756996154785
11.173027038574219,-0.08435123413801193,-6.016251564025879
11.177184104919434,-0.08424384891986847,-5.974329471588135
11.181330680847168,-0.08413752168416977,-5.932513236999512
11.185469627380371,-0.08403227478265762,-5.890803337097168
11.189598083496094,-0.08392807841300964,-5.8491973876953125
11.193716049194336,-0.08382493257522583,-5.807694435119629
11.197824478149414,-0.08372282981872559,-5.766293048858643
11.201924324035645,-0.08362176269292831,-5.724992275238037
11.206010818481445,-0.08352170884609222,-5.683789253234863
11.210091590881348,-0.0834226980805397,-5.642685890197754
11.21416187286377,-0.08332470059394836,-5.60167932510376
11.218221664428711,-0.0832277163863182,-5.560768127441406
11.222270965576172,-0.08313172310590744,-5.519950866699219
11.226310729980469,-0.08303673565387726,-5.4792280197143555
11.230340957641602,-0.08294273912906647,-5.438597202301025
11.234362602233887,-0.08284973353147507,-5.398057460784912
11.238370895385742,-0.08275768905878067,-5.357606887817383
11.24237060546875,-0.08266662806272507,-5.3172454833984375
11.246374130249023,-0.08257663249969482,-5.276978492736816
11.25035572052002,-0.08248751610517502,-5.236792087554932
11.254338264465332,-0.08239942789077759,-5.1966962814331055
11.258312225341797,-0.08231230825185776,-5.156686305999756
11.262273788452148,-0.08222610503435135,-5.116758346557617
11.266227722167969,-0.08214087039232254,-5.076913833618164
11.270169258117676,-0.08205655217170715,-5.037149429321289
11.274104118347168,-0.08197318017482758,-4.997466564178467
11.278038024902344,-0.08189079910516739,-4.95786714553833
11.281949996948242,-0.08180925995111465,-4.918341159820557
11.28586483001709,-0.0817287266254425,-4.878897666931152
11.28977108001709,-0.08164910972118378,-4.839530944824219
11.29367733001709,-0.08157046139240265,-4.800243854522705
11.29755973815918,-0.08149262517690659,-4.7610249519348145
11.301447868347168,-0.08141578733921051,-4.721886157989502
11.305323600769043,-0.08133982867002487,-4.682818412780762
11.309189796447754,-0.08126475661993027,-4.643822193145752
11.31305980682373,-0.08119066059589386,-4.6049017906188965
11.316904067993164,-0.08111733943223953,-4.566044807434082
11.32075309753418,-0.0810449942946434,-4.527262210845947
11.324603080749512,-0.08097358793020248,-4.488551139831543
11.328431129455566,-0.08090295642614365,-4.449901580810547
11.332259178161621,-0.08083326369524002,-4.411322593688965
11.336078643798828,-0.08076443523168564,-4.37280797958374
11.339887619018555,-0.08069644868373871,-4.334357261657715
11.343697547912598,-0.0806293934583664,-4.295973777770996
11.34749984741211,-0.08056319504976273,-4.25765323638916
11.351302146911621,-0.08049791306257248,-4.21939754486084
11.355082511901855,-0.08043337613344193,-4.181197166442871
11.358878135681152,-0.08036984503269196,-4.143065929412842
11.362648963928223,-0.08030703663825989,-4.104987144470215
11.366422653198242,-0.08024513721466064,-4.0669708251953125
11.370185852050781,-0.08018407225608826,-4.029011249542236
11.37395191192627,-0.0801239013671875,-3.991111993789673
11.377708435058594,-0.08006454259157181,-3.953267812728882
11.381453514099121,-0.08000598847866058,-3.9154772758483887
11.385198593139648,-0.0799483135342598,-3.8777434825897217
11.388934135437012,-0.07989143580198288,-3.840062141418457
11.392661094665527,-0.07983537763357162,-3.8024332523345947
11.396389961242676,-0.07978019118309021,-3.7648587226867676
11.400120735168457,-0.07972587645053864,-3.7273380756378174
11.403839111328125,-0.07967233657836914,-3.689865827560425
11.407547950744629,-0.07961958646774292,-3.652442455291748
11.411259651184082,-0.07956770807504654,-3.615070343017578
11.414959907531738,-0.07951659709215164,-3.577744245529175
11.418648719787598,-0.07946626096963882,-3.540464162826538
11.422353744506836,-0.07941687107086182,-3.503237009048462
11.426036834716797,-0.07936816662549973,-3.466050148010254
11.429717063903809,-0.07932028919458389,-3.4289095401763916
11.433404922485352,-0.0792732909321785,-3.3918166160583496
11.437078475952148,-0.0792270302772522,-3.354764699935913
11.440743446350098,-0.07918152958154678,-3.317754030227661
11.444424629211426,-0.07913697510957718,-3.2807915210723877
11.448079109191895,-0.07909305393695831,-3.243863821029663
11.45173454284668,-0.0790499672293663,-3.2069783210754395
11.455395698547363,-0.07900772988796234,-3.170135021209717
11.459043502807617,-0.07896621525287628,-3.1333281993865967
11.46269416809082,-0.07892553508281708,-3.0965614318847656
11.466334342956543,-0.07888558506965637,-3.0598304271698
11.469977378845215,-0.07884646952152252,-3.0231380462646484
11.473609924316406,-0.07880808413028717,-2.9864797592163086
11.477242469787598,-0.07877050340175629,-2.9498579502105713
11.480878829956055,-0.07873374968767166,-2.9132723808288574
11.484503746032715,-0.07869771122932434,-2.876718521118164
11.488131523132324,-0.07866249233484268,-2.8401992321014404
11.49174690246582,-0.07862798124551773,-2.8037099838256836
11.49536418914795,-0.07859427481889725,-2.767253875732422
11.498971939086914,-0.07856128364801407,-2.7308268547058105
11.502582550048828,-0.07852910459041595,-2.694431781768799
11.506192207336426,-0.07849770784378052,-2.658066511154175
11.509794235229492,-0.07846703380346298,-2.6217284202575684
11.513396263122559,-0.07843714952468872,-2.5854196548461914
11.51700210571289,-0.07840806990861893,-2.5491392612457275
11.520594596862793,-0.07837966829538345,-2.512883186340332
11.524190902709961,-0.07835207879543304,-2.476654529571533
11.527776718139648,-0.07832518219947815,-2.4404489994049072
11.531376838684082,-0.0782991498708725,-2.4042716026306152
11.534952163696289,-0.0782737284898758,-2.3681135177612305
11.538542747497559,-0.07824917882680893,-2.331981897354126
11.542122840881348,-0.07822532206773758,-2.2958710193634033
11.545703887939453,-0.07820224016904831,-2.259782314300537
11.549276351928711,-0.07817985862493515,-2.2237133979797363
11.552862167358398,-0.07815832644701004,-2.1876676082611084
11.556435585021973,-0.07813747972249985,-2.151639699935913
11.559999465942383,-0.07811731845140457,-2.115628957748413
11.563567161560059,-0.07809794694185257,-2.0796375274658203
11.567134857177734,-0.07807932794094086,-2.04366397857666
11.57070541381836,-0.07806148380041122,-2.0077078342437744
11.574277877807617,-0.07804440706968307,-1.9717684984207153
11.577838897705078,-0.07802800089120865,-1.9358428716659546
11.581402778625488,-0.0780123695731163,-1.8999327421188354
11.584965705871582,-0.07799748331308365,-1.8640367984771729
11.588522911071777,-0.0779833048582077,-1.8281534910202026
11.59207820892334,-0.07796986401081085,-1.7922827005386353
11.595634460449219,-0.0779571682214737,-1.7564243078231812
11.599198341369629,-0.0779452696442604,-1.7205785512924194
11.602744102478027,-0.07793400436639786,-1.6847409009933472
11.606294631958008,-0.07792350649833679,-1.648914098739624
11.609848976135254,-0.07791377604007721,-1.6130973100662231
11.613405227661133,-0.07790479809045792,-1.5772894620895386
11.616962432861328,-0.07789656519889832,-1.541489839553833
11.620509147644043,-0.07788900285959244,-1.5056960582733154
11.624056816101074,-0.07788219302892685,-1.4699090719223022
11.627605438232422,-0.07787612825632095,-1.4341284036636353
11.631157875061035,-0.07787081599235535,-1.3983533382415771
11.634698867797852,-0.07786617428064346,-1.3625816106796265
11.63825511932373,-0.07786235958337784,-1.3268154859542847
11.641800880432129,-0.07785921543836594,-1.2910513877868652
11.645347595214844,-0.07785681635141373,-1.2552900314331055
11.648897171020508,-0.0778551697731018,-1.2195309400558472
11.652436256408691,-0.07785417884588242,-1.1837718486785889
11.655989646911621,-0.07785402238368988,-1.148014783859253
11.659531593322754,-0.07785452157258987,-1.112256407737732
11.66307544708252,-0.07785576581954956,-1.0764974355697632
11.666635513305664,-0.0778578519821167,-1.0407384634017944
11.670167922973633,-0.07786048203706741,-1.0049747228622437
11.67371940612793,-0.07786397635936737,-0.9692099690437317
11.67727279663086,-0.07786820083856583,-0.9334415793418884
11.68081283569336,-0.07787307351827621,-0.8976680040359497
11.684368133544922,-0.07787878811359406,-0.8618907928466797
11.68791389465332,-0.07788515836000443,-0.8261071443557739
11.691459655761719,-0.07789226621389389,-0.7903173565864563
11.695023536682129,-0.0779002234339714,-0.7545217871665955
11.698561668395996,-0.07790873199701309,-0.7187169790267944
11.702115058898926,-0.07791807502508163,-0.6829047799110413
11.705671310424805,-0.07792817056179047,-0.6470838189125061
11.709229469299316,-0.07793901115655899,-0.6112532615661621
11.712790489196777,-0.07795058935880661,-0.5754124522209167
11.716336250305176,-0.07796280831098557,-0.5395599603652954
11.719902992248535,-0.07797589153051376,-0.5036967396736145
11.723454475402832,-0.0779896005988121,-0.4678204655647278
11.727007865905762,-0.07800406217575073,-0.4319312870502472
11.730578422546387,-0.07801936566829681,-0.39602896571159363
11.734137535095215,-0.07803531736135483,-0.3601118326187134
11.737699508666992,-0.07805202156305313,-0.32417967915534973
11.741275787353516,-0.07806955277919769,-0.28823214769363403
11.744839668273926,-0.07808773964643478,-0.2522678077220917
11.748408317565918,-0.07810668647289276,-0.21628642082214355
11.751977920532227,-0.07812637090682983,-0.1802872270345688
11.755550384521484,-0.07814681529998779,-0.14426955580711365
11.759121894836426,-0.07816798239946365,-0.10823266208171844
11.762699127197266,-0.0781899243593216,-0.07217592746019363
11.766277313232422,-0.07821260392665863,-0.036098599433898926
11.769856452941895,-0.07823602855205536,-7.20672095726871e-16
11.77344036102295,-0.07826021313667297,0.03612057492136955
11.777024269104004,-0.07828514277935028,0.07226382195949554
11.780609130859375,-0.07831081748008728,0.10843043029308319
11.784196853637695,-0.07833725214004517,0.1446211189031601
11.787788391113281,-0.07836444675922394,0.18083660304546356
11.7913818359375,-0.0783923864364624,0.21707755327224731
11.794989585876465,-0.07842116802930832,0.25334498286247253
11.79858684539795,-0.07845062762498856,0.28963905572891235
11.8021879196167,-0.07848085463047028,0.32596078515052795
11.805787086486816,-0.0785118043422699,0.3623107075691223
11.809405326843262,-0.07854363322257996,0.39869019389152527
11.813011169433594,-0.07857612520456314,0.4350989758968353
11.816634178161621,-0.07860947400331497,0.471538782119751
11.820242881774902,-0.07864348590373993,0.508009135723114
11.823870658874512,-0.07867836207151413,0.544512152671814
11.827485084533691,-0.07871390134096146,0.5810470581054688
11.83111572265625,-0.07875031232833862,0.6176160573959351
11.834748268127441,-0.07878747582435608,0.6542191505432129
11.838383674621582,-0.07882541418075562,0.6908570528030396
11.842021942138672,-0.07886413484811783,0.7275306582450867
11.845660209655762,-0.07890360802412033,0.7642403841018677
11.849302291870117,-0.07894386351108551,0.800987184047699
11.852946281433105,-0.07898489385843277,0.8377717733383179
11.856607437133789,-0.07902679592370987,0.8745958805084229
11.86025619506836,-0.07906938344240189,0.9114581942558289
11.863920211791992,-0.07911283522844315,0.9483615756034851
11.867587089538574,-0.07915707677602768,0.9853057861328125
11.871256828308105,-0.0792020931839943,1.0222915410995483
11.87492847442627,-0.07924789935350418,1.0593194961547852
11.87860107421875,-0.07929448783397675,1.0963903665542603
11.88227653503418,-0.07934186607599258,1.13350510597229
11.885972023010254,-0.07939014583826065,1.170665979385376
11.889649391174316,-0.07943908870220184,1.207870364189148
11.89334774017334,-0.07948894798755646,1.2451225519180298
11.89704704284668,-0.07953959703445435,1.282421588897705
11.900748252868652,-0.07959102839231491,1.3197680711746216
11.904463768005371,-0.0796433538198471,1.3571645021438599
11.908170700073242,-0.0796964019536972,1.3946088552474976
11.911893844604492,-0.07975035160779953,1.4321047067642212
11.915617942810059,-0.07980509102344513,1.4696513414382935
11.91934585571289,-0.07986065745353699,1.5072495937347412
11.923075675964355,-0.07991702854633331,1.5449002981185913
11.9268217086792,-0.07997430115938187,1.5826059579849243
11.930569648742676,-0.08003239333629608,1.6203656196594238
11.934321403503418,-0.08009131252765656,1.6581802368164062
11.938075065612793,-0.0801510438323021,1.6960504055023193
11.9418306350708,-0.08021160215139389,1.73397696018219
11.945602416992188,-0.08027306944131851,1.7719627618789673
11.949377059936523,-0.08033537119626999,1.8100066184997559
11.953153610229492,-0.08039849996566772,1.848109483718872
11.95693302154541,-0.08046247065067291,1.8862721920013428
11.960729598999023,-0.08052736520767212,1.9244976043701172
11.964526176452637,-0.08059309422969818,1.9627842903137207
11.968327522277832,-0.08065968006849289,2.001133680343628
11.97214412689209,-0.08072718977928162,2.03954815864563
11.975948333740234,-0.08079544454813004,2.07802414894104
11.979772567749023,-0.08086467534303665,2.116568088531494
11.983610153198242,-0.08093483000993729,2.155179738998413
11.987439155578613,-0.0810057669878006,2.1938557624816895
11.99128246307373,-0.08107764273881912,2.2326016426086426
11.99512767791748,-0.08115038275718689,2.271415948867798
11.998992919921875,-0.08122409880161285,2.310302495956421
12.002857208251953,-0.08129866421222687,2.3492586612701416
12.006725311279297,-0.08137410879135132,2.3882863521575928
12.010598182678223,-0.0814504474401474,2.4273860454559326
12.014484405517578,-0.08152773231267929,2.4665608406066895
12.0183744430542,-0.08160591125488281,2.505809783935547
12.022281646728516,-0.08168508112430573,2.5451364517211914
12.026192665100098,-0.08176514506340027,2.5845391750335693
12.03010368347168,-0.08184608072042465,2.6240177154541016
12.034032821655273,-0.08192802220582962,2.6635773181915283
12.0379638671875,-0.08201086521148682,2.7032151222229004
12.041898727416992,-0.08209461718797684,2.7429327964782715
12.04583740234375,-0.08217927813529968,2.7827308177948
12.049805641174316,-0.08226504176855087,2.8226163387298584
12.053762435913086,-0.08235162496566772,2.8625810146331787
12.057735443115234,-0.08243922889232635,2.902632474899292
12.061711311340332,-0.08252774924039841,2.94276762008667
12.065704345703125,-0.08261729776859283,2.982992172241211
12.0697021484375,-0.08270779252052307,3.0233030319213867
12.073700904846191,-0.08279921114444733,3.0637006759643555
12.077717781066895,-0.08289168030023575,3.1041908264160156
12.081750869750977,-0.08298518508672714,3.144773483276367
12.085785865783691,-0.08307963609695435,3.1854465007781982
12.089824676513672,-0.08317504823207855,3.2262110710144043
12.09388256072998,-0.08327153325080872,3.2670722007751465
12.097941398620605,-0.08336896449327469,3.3080265522003174
12.10200309753418,-0.08346737176179886,3.3490753173828125
12.106083869934082,-0.08356685191392899,3.390223979949951
12.110177993774414,-0.08366739749908447,3.4314725399017334
12.114276885986328,-0.08376893401145935,3.4728193283081055
12.118393898010254,-0.08387155830860138,3.5142691135406494
12.122513771057129,-0.0839751809835434,3.555819034576416
12.12663745880127,-0.084079809486866,3.597470283508301
12.130778312683105,-0.08418553322553635,3.6392273902893066
12.134934425354004,-0.08429235965013504,3.6810922622680664
12.1390962600708,-0.08440020680427551,3.723062038421631
12.143272399902344,-0.08450915664434433,3.7651407718658447
12.147454261779785,-0.08461915701627731,3.8073272705078125
12.151638984680176,-0.08473017811775208,3.849621295928955
12.155854225158691,-0.08484242856502533,3.892033338546753
12.160073280334473,-0.08495572954416275,3.934555768966675
12.164294242858887,-0.08507006615400314,3.977189302444458
12.168535232543945,-0.08518557995557785,4.019941329956055
12.1727933883667,-0.08530224114656448,4.062811374664307
12.177053451538086,-0.08541996031999588,4.1057963371276855
12.181319236755371,-0.08553876727819443,4.148898124694824
12.185615539550781,-0.08565885573625565,4.192127227783203
12.189913749694824,-0.08578000217676163,4.235474586486816
12.194215774536133,-0.08590225130319595,4.278942108154297
12.19853687286377,-0.08602570742368698,4.322536468505859
12.202875137329102,-0.08615036308765411,4.36625862121582
12.207232475280762,-0.08627624064683914,4.410109996795654
12.211592674255371,-0.08640322834253311,4.454086780548096
12.215953826904297,-0.08653132617473602,4.498189449310303
12.220351219177246,-0.08666078001260757,4.542431831359863
12.224749565124512,-0.08679135888814926,4.586802959442139
12.229165077209473,-0.08692317456007004,4.631309509277344
12.233587265014648,-0.08705615997314453,4.6759490966796875
12.238027572631836,-0.0871904119849205,4.720727920532227
12.242483139038086,-0.08732591569423676,4.765646457672119
12.246943473815918,-0.08746258914470673,4.8107008934021
12.251436233520508,-0.08760066330432892,4.855905055999756
12.255932807922363,-0.08773992210626602,4.901247978210449
12.260433197021484,-0.08788037300109863,4.9467315673828125
12.264968872070312,-0.08802224695682526,4.992369651794434
12.269503593444824,-0.08816531300544739,5.038149833679199
12.27405834197998,-0.08830970525741577,5.084081649780273
12.278632164001465,-0.0884554386138916,5.1301655769348145
12.283209800720215,-0.08860240876674652,5.176398277282715
12.287806510925293,-0.08875072747468948,5.2227864265441895
12.292421340942383,-0.08890040218830109,5.269331932067871
12.297053337097168,-0.08905144035816193,5.316036224365234
12.301705360412598,-0.0892038568854332,5.362901210784912
12.306375503540039,-0.0893576517701149,5.409928321838379
12.311049461364746,-0.08951273560523987,5.457113265991211
12.315743446350098,-0.08966923505067825,5.5044636726379395
12.320454597473145,-0.08982712775468826,5.551980972290039
12.325186729431152,-0.08998645842075348,5.599668502807617
12.329936027526855,-0.09014721214771271,5.647525787353516
12.334688186645508,-0.09030928462743759,5.6955485343933105
12.33947467803955,-0.09047292917966843,5.743752956390381
12.344265937805176,-0.09063791483640671,5.792126178741455
12.349075317382812,-0.09080436825752258,5.840677738189697
12.353919982910156,-0.0909724235534668,5.889416217803955
12.358770370483398,-0.09114187210798264,5.938330173492432
12.36363410949707,-0.09131278097629547,5.987424850463867
12.368523597717285,-0.09148524701595306,6.036707878112793
12.373429298400879,-0.09165921062231064,6.086176872253418
12.378352165222168,-0.09183469414710999,6.135833740234375
12.383298873901367,-0.09201175719499588,6.185684680938721
12.388248443603516,-0.09219024330377579,6.235720157623291
12.393229484558105,-0.0923703983426094,6.285956859588623
12.398233413696289,-0.09255214780569077,6.336392402648926
12.403254508972168,-0.09273546934127808,6.387025833129883
12.408294677734375,-0.09292039275169373,6.437860488891602
12.413355827331543,-0.09310693293809891,6.488899230957031
12.418437957763672,-0.09329510480165482,6.5401434898376465
12.423539161682129,-0.09348491579294205,6.591595649719238
12.428659439086914,-0.0936763733625412,6.643256664276123
12.43381404876709,-0.09386959671974182,6.6951375007629395
12.438971519470215,-0.0940643772482872,6.747223854064941
12.444153785705566,-0.09426086395978928,6.799528121948242
12.449368476867676,-0.0944591611623764,6.852058410644531
12.454601287841797,-0.09465914219617844,6.904808044433594
12.45984172821045,-0.09486076980829239,6.957774639129639
12.465115547180176,-0.09506423026323318,7.01097297668457
12.470426559448242,-0.095269575715065,7.0644097328186035
12.475741386413574,-0.09547656774520874,7.118066787719727
12.481093406677246,-0.09568546712398529,7.171966075897217
12.486448287963867,-0.09589602798223495,7.226089954376221
12.491839408874512,-0.09610852599143982,7.280461311340332
12.497251510620117,-0.09632284939289093,7.335072040557861
12.50269889831543,-0.09653912484645844,7.389934539794922
12.508167266845703,-0.09675726294517517,7.445041656494141
12.513656616210938,-0.09697727113962173,7.500397205352783
12.519168853759766,-0.09719917923212051,7.556004047393799
12.524714469909668,-0.09742309153079987,7.611871242523193
12.530263900756836,-0.09764878451824188,7.6679840087890625
12.535866737365723,-0.0978766679763794,7.724374771118164
12.541472434997559,-0.09810636192560196,7.781014919281006
12.547115325927734,-0.09833814948797226,7.8379292488098145
12.55278205871582,-0.09857193380594254,7.895111560821533
12.558485984802246,-0.09880784898996353,7.952573299407959
12.564208984375,-0.0990457683801651,8.010306358337402
12.56997013092041,-0.09928584843873978,8.06832504272461
12.575751304626465,-0.09952797740697861,8.12662124633789
12.581551551818848,-0.09977215528488159,8.185196876525879
12.58739185333252,-0.10001856833696365,8.24406909942627
12.59325122833252,-0.10026706755161285,8.303226470947266
12.599150657653809,-0.10051783919334412,8.362686157226562
12.605072021484375,-0.10077076405286789,8.422439575195312
12.611030578613281,-0.10102597624063492,8.482500076293945
12.617009162902832,-0.10128335654735565,8.542859077453613
12.623024940490723,-0.10154305398464203,8.603531837463379
12.62907600402832,-0.10180508345365524,8.664519309997559
12.635153770446777,-0.10206940025091171,8.72581958770752
12.641266822814941,-0.1023360937833786,8.787443161010742
12.647404670715332,-0.10260508209466934,8.849384307861328
12.653579711914062,-0.10287650674581528,8.911656379699707
12.659790992736816,-0.1031503677368164,8.974261283874512
12.66602611541748,-0.10342659056186676,9.037195205688477
12.672295570373535,-0.1037052795290947,9.100467681884766
12.678610801696777,-0.10398655384778976,9.164090156555176
12.684946060180664,-0.10427022725343704,9.228050231933594
12.69131851196289,-0.10455646365880966,9.292362213134766
12.697745323181152,-0.10484541207551956,9.357043266296387
12.704179763793945,-0.10513672977685928,9.422061920166016
12.71066951751709,-0.10543082654476166,9.487459182739258
12.717178344726562,-0.105727419257164,9.55320930480957
12.723747253417969,-0.10602689534425735,9.619349479675293
12.730337142944336,-0.10632892698049545,9.685853004455566
12.736967086791992,-0.10663371533155441,9.752739906311035
12.743636131286621,-0.10694127529859543,9.820012092590332
12.750344276428223,-0.1072516217827797,9.887674331665039
12.757095336914062,-0.10756483674049377,9.955735206604004
12.763887405395508,-0.10788090527057648,10.024195671081543
12.77071475982666,-0.1081998199224472,10.093056678771973
12.777583122253418,-0.10852165520191193,10.16232681274414
12.784490585327148,-0.10884641855955124,10.232008934020996
12.791439056396484,-0.10917416214942932,10.30211067199707
12.798428535461426,-0.10950490832328796,10.372634887695312
12.805460929870605,-0.10983870178461075,10.443588256835938
12.81255054473877,-0.11017569899559021,10.51498794555664
12.819658279418945,-0.11051560193300247,10.586808204650879
12.826828956604004,-0.11085881292819977,10.659088134765625
12.834037780761719,-0.11120515316724777,10.731813430786133
12.841290473937988,-0.11155470460653305,10.804993629455566
12.848599433898926,-0.11190760880708694,10.878645896911621
12.855950355529785,-0.11226377636194229,10.952762603759766
12.863344192504883,-0.11262324452400208,11.027348518371582
12.870777130126953,-0.1129860132932663,11.102408409118652
12.87827205657959,-0.11335232853889465,11.177966117858887
12.885824203491211,-0.11372216045856476,11.254022598266602
12.893399238586426,-0.11409526318311691,11.330554962158203
12.90103816986084,-0.11447202414274216,11.40760326385498
12.908730506896973,-0.11485239118337631,11.485166549682617
12.916468620300293,-0.11523633450269699,11.563241958618164
12.924263000488281,-0.11562398821115494,11.641845703125
12.932106018066406,-0.11601530760526657,11.720977783203125
12.940009117126465,-0.11641044914722443,11.800653457641602
12.947967529296875,-0.1168094053864479,11.880875587463379
12.955972671508789,-0.11721213907003403,11.96164321899414
12.964035034179688,-0.11761879175901413,12.042972564697266
12.972145080566406,-0.11802931129932404,12.124859809875488
12.980327606201172,-0.11844395846128464,12.207337379455566
12.988560676574707,-0.1188625916838646,12.290389060974121
12.996853828430176,-0.11928534507751465,12.37403392791748
13.005206108093262,-0.119712233543396,12.458274841308594
13.013622283935547,-0.12014336884021759,12.543126106262207
13.022099494934082,-0.12057875096797943,12.628591537475586
13.030621528625488,-0.12101828306913376,12.7146635055542
13.039222717285156,-0.12146235257387161,12.801382064819336
13.047882080078125,-0.12191078066825867,12.888734817504883
13.056611061096191,-0.12236374616622925,12.976741790771484
13.06590747833252,-0.12282596528530121,13.06590747833252
13.074822425842285,-0.1232885867357254,13.155295372009277
13.083821296691895,-0.123756043612957,13.245377540588379
13.092896461486816,-0.12422830611467361,13.336153984069824
13.102039337158203,-0.12470533698797226,13.427623748779297
13.111252784729004,-0.1251872330904007,13.519800186157227
13.120516777038574,-0.12567386031150818,13.6126708984375
13.12983512878418,-0.12616528570652008,13.70624828338623
13.13919448852539,-0.126661479473114,13.800527572631836
13.148613929748535,-0.1271626353263855,13.895537376403809
13.158269882202148,-0.12767057120800018,13.991475105285645
13.167765617370605,-0.12818145751953125,14.087928771972656
13.177665710449219,-0.1287008821964264,14.185511589050293
13.187383651733398,-0.12922316789627075,14.283604621887207
13.197112083435059,-0.12975026667118073,14.38242244720459
13.207223892211914,-0.13028590381145477,14.482383728027344
13.217170715332031,-0.1308247596025467,14.582901000976562
13.227335929870605,-0.1313706785440445,14.684404373168945
13.237481117248535,-0.13192138075828552,14.786640167236328
13.247797966003418,-0.13247881829738617,14.889836311340332
13.258079528808594,-0.13304102420806885,14.993770599365234
13.268576622009277,-0.1336105614900589,15.098736763000488
13.279064178466797,-0.13418525457382202,15.204490661621094
13.289697647094727,-0.13476674258708954,15.311223983764648
13.300479888916016,-0.135355144739151,15.418951988220215
13.311244010925293,-0.13594885170459747,15.527495384216309
13.322198867797852,-0.13655005395412445,15.637106895446777
13.33327865600586,-0.13715818524360657,15.74772834777832
13.344258308410645,-0.13777099549770355,15.859101295471191
13.355487823486328,-0.13839218020439148,15.97165584564209
13.366823196411133,-0.13902035355567932,16.085237503051758
13.37825870513916,-0.13965553045272827,16.19985008239746
13.389678001403809,-0.14029660820960999,16.31536865234375
13.401445388793945,-0.14094747602939606,16.432252883911133
13.413071632385254,-0.14160309731960297,16.549917221069336
13.424897193908691,-0.1422671526670456,16.668794631958008
13.4368314743042,-0.1429387927055359,16.788789749145508
13.448820114135742,-0.14361752569675446,16.90985107421875
13.461053848266602,-0.1443055123090744,17.0322322845459
13.473323822021484,-0.1450006067752838,17.155691146850586
13.485709190368652,-0.1457037627696991,17.280338287353516
13.498257637023926,-0.1464156210422516,17.406259536743164
13.510817527770996,-0.14713464677333832,17.53327178955078
13.523842811584473,-0.147865891456604,17.661983489990234
13.536652565002441,-0.14860206842422485,17.79153060913086
13.549575805664062,-0.14934684336185455,17.922353744506836
13.56286334991455,-0.1501031368970871,18.054807662963867
13.576180458068848,-0.15086737275123596,18.18846893310547
13.589427947998047,-0.15163856744766235,18.32322120666504
13.603139877319336,-0.15242281556129456,18.459806442260742
13.616837501525879,-0.15321490168571472,18.597599029541016
13.630475044250488,-0.15401442348957062,18.736553192138672
13.644563674926758,-0.154827281832695,18.877389907836914
13.658623695373535,-0.15564821660518646,19.01947593688965
13.673116683959961,-0.15648260712623596,19.163475036621094
13.687317848205566,-0.15732233226299286,19.308393478393555
13.702213287353516,-0.1581788808107376,19.45564842224121
13.716800689697266,-0.15904083847999573,19.60384178161621
13.731833457946777,-0.15991705656051636,19.754070281982422
13.746795654296875,-0.1608017534017563,19.905620574951172
13.76223373413086,-0.16170145571231842,20.05931282043457
13.777558326721191,-0.16260942816734314,20.214311599731445
13.79311752319336,-0.16352993249893188,20.371152877807617
13.808849334716797,-0.1644624024629593,20.529775619506836
13.824749946594238,-0.1654070019721985,20.69019889831543
11.1647367477417,-0.16607490181922913,22.35100555419922
11.083194732666016,-0.16588157415390015,22.359094619750977
11.001842498779297,-0.16569025814533234,22.367162704467773
10.920674324035645,-0.16550090909004211,22.375211715698242
10.839691162109375,-0.16531352698802948,22.383241653442383
10.758888244628906,-0.16512811183929443,22.39124870300293
10.678265571594238,-0.16494466364383698,22.39923858642578
10.597830772399902,-0.16476330161094666,22.407230377197266
10.517560005187988,-0.1645837128162384,22.415180206298828
10.43747329711914,-0.16440622508525848,22.423133850097656
10.357547760009766,-0.16423049569129944,22.431047439575195
10.277801513671875,-0.16405680775642395,22.438962936401367
10.19821834564209,-0.1638849824666977,22.446855545043945
10.118803024291992,-0.16371506452560425,22.45473289489746
10.039546966552734,-0.16354697942733765,22.46258544921875
9.960453987121582,-0.16338080167770386,22.470422744750977
9.881525993347168,-0.16321657598018646,22.478260040283203
9.802756309509277,-0.1630542129278183,22.4860782623291
9.724139213562012,-0.16289366781711578,22.493877410888672
9.645674705505371,-0.16273492574691772,22.50165557861328
9.567361831665039,-0.1625780165195465,22.509418487548828
9.489204406738281,-0.1624230444431305,22.517179489135742
9.41118335723877,-0.16226966679096222,22.5248966217041
9.3333158493042,-0.16211824119091034,22.532617568969727
9.25560188293457,-0.16196878254413605,22.54034423828125
9.178017616271973,-0.1618209034204483,22.54802894592285
9.100581169128418,-0.16167491674423218,22.555713653564453
9.023282051086426,-0.16153070330619812,22.563383102416992
8.94611644744873,-0.16138818860054016,22.571027755737305
8.869091987609863,-0.16124755144119263,22.578676223754883
8.79218864440918,-0.16110844910144806,22.586278915405273
8.715433120727539,-0.16097140312194824,22.593910217285156
8.638797760009766,-0.16083590686321259,22.601503372192383
8.562294960021973,-0.16070225834846497,22.60909652709961
8.485915184020996,-0.16057024896144867,22.616666793823242
8.409658432006836,-0.16043995320796967,22.62421989440918
8.333528518676758,-0.16031146049499512,22.631772994995117
8.257516860961914,-0.1601845920085907,22.639305114746094
8.181632041931152,-0.1600595861673355,22.6468448638916
8.105862617492676,-0.15993626415729523,22.654369354248047
8.03020191192627,-0.15981446206569672,22.6618595123291
7.954655170440674,-0.15969432890415192,22.669336318969727
7.879227161407471,-0.15957601368427277,22.676822662353516
7.80391263961792,-0.1594594269990921,22.684303283691406
7.72869873046875,-0.15934433043003082,22.69174575805664
7.653595924377441,-0.15923096239566803,22.699190139770508
7.578604698181152,-0.1591193675994873,22.70663833618164
7.503714084625244,-0.15900933742523193,22.714067459106445
7.428921222686768,-0.15890085697174072,22.721467971801758
7.354236125946045,-0.15879416465759277,22.728879928588867
7.279654026031494,-0.15868917107582092,22.73629379272461
7.205158710479736,-0.1585855633020401,22.743661880493164
7.130771636962891,-0.1584838479757309,22.75105857849121
7.0564680099487305,-0.15838350355625153,22.75840950012207
6.9822611808776855,-0.15828485786914825,22.765762329101562
6.908150672912598,-0.15818791091442108,22.773120880126953
6.834126949310303,-0.15809251368045807,22.780460357666016
6.760195255279541,-0.15799878537654877,22.78780174255371
6.6863484382629395,-0.15790660679340363,22.795129776000977
6.6125807762146,-0.1578158736228943,22.802425384521484
6.538901329040527,-0.15772683918476105,22.809728622436523
6.465308666229248,-0.1576394885778427,22.81703758239746
6.391791820526123,-0.15755358338356018,22.824323654174805
6.318359375,-0.15746939182281494,22.83161735534668
6.244999408721924,-0.1573866307735443,22.838884353637695
6.171720027923584,-0.1573055386543274,22.846158981323242
6.0985107421875,-0.15722589194774628,22.853410720825195
6.025378227233887,-0.15714789927005768,22.860666275024414
5.952313423156738,-0.15707135200500488,22.86789894104004
5.879321575164795,-0.15699641406536102,22.87513542175293
5.806402683258057,-0.15692315995693207,22.882381439208984
5.733547210693359,-0.15685130655765533,22.889602661132812
5.6607537269592285,-0.1567808985710144,22.896804809570312
5.588033676147461,-0.15671227872371674,22.904033660888672
5.515373229980469,-0.15664508938789368,22.91124153137207
5.442769527435303,-0.15657930076122284,22.918424606323242
5.370229721069336,-0.15651513636112213,22.925617218017578
5.2977495193481445,-0.15645252168178558,22.93280792236328
5.225324630737305,-0.15639138221740723,22.939983367919922
5.152957439422607,-0.15633179247379303,22.947160720825195
5.08064603805542,-0.15627378225326538,22.9543399810791
5.008384704589844,-0.15621718764305115,22.96150016784668
4.936176776885986,-0.15616214275360107,22.968664169311523
4.864015579223633,-0.15610851347446442,22.975807189941406
4.791910171508789,-0.15605661273002625,22.98297691345215
4.71984338760376,-0.15600593388080597,22.990100860595703
4.647828578948975,-0.1559569537639618,22.997249603271484
4.575857162475586,-0.15590940415859222,23.00438690185547
4.503929615020752,-0.15586340427398682,23.011524200439453
4.4320387840271,-0.15581871569156647,23.018630981445312
4.360196590423584,-0.15577580034732819,23.02577781677246
4.288389682769775,-0.15573424100875854,23.032901763916016
4.216617107391357,-0.15569403767585754,23.040000915527344
4.1448869705200195,-0.15565556287765503,23.047130584716797
4.073187828063965,-0.15561844408512115,23.05423927307129
4.001519680023193,-0.15558268129825592,23.061325073242188
3.92988920211792,-0.15554863214492798,23.068443298339844
3.8582863807678223,-0.15551592409610748,23.075538635253906
3.7867136001586914,-0.15548472106456757,23.08263397216797
3.715170383453369,-0.1554550677537918,23.089738845825195
3.643650770187378,-0.1554267406463623,23.096818923950195
3.572157144546509,-0.15539991855621338,23.10390281677246
3.500688314437866,-0.15537461638450623,23.11098861694336
3.429243564605713,-0.15535084903240204,23.11808204650879
3.357816457748413,-0.15532837808132172,23.125150680541992
3.2864105701446533,-0.15530744194984436,23.13222312927246
3.215023994445801,-0.1552879959344864,23.139301300048828
3.1436562538146973,-0.15527009963989258,23.146387100219727
3.0723040103912354,-0.15525366365909576,23.153472900390625
3.0009636878967285,-0.1552385538816452,23.160533905029297
2.9296374320983887,-0.1552249640226364,23.167604446411133
2.858323574066162,-0.155212864279747,23.17467498779297
2.7870211601257324,-0.15520226955413818,23.181753158569336
2.7157247066497803,-0.15519298613071442,23.188806533813477
2.644440174102783,-0.15518538653850555,23.195894241333008
2.5731594562530518,-0.15517909824848175,23.202957153320312
2.5018839836120605,-0.15517427027225494,23.210020065307617
2.4306130409240723,-0.1551709622144699,23.21709442138672
2.359342098236084,-0.15516895055770874,23.224140167236328
2.2880754470825195,-0.15516862273216248,23.231220245361328
2.216805934906006,-0.15516959130764008,23.23827362060547
2.145538091659546,-0.1551722288131714,23.245361328125
2.0742647647857666,-0.15517616271972656,23.252424240112305
2.0029854774475098,-0.155181422829628,23.25946617126465
1.9317030906677246,-0.15518833696842194,23.266538619995117
1.8604140281677246,-0.15519674122333527,23.273616790771484
1.7891167402267456,-0.1552066206932068,23.280696868896484
1.7178078889846802,-0.15521779656410217,23.28775405883789
1.6464881896972656,-0.15523046255111694,23.29481315612793
1.575156807899475,-0.1552446335554123,23.301881790161133
1.5038132667541504,-0.15526044368743896,23.308977127075195
1.4324532747268677,-0.1552775651216507,23.31605339050293
1.3610752820968628,-0.1552959829568863,23.323102951049805
1.2896814346313477,-0.1553160697221756,23.330188751220703
1.2182687520980835,-0.15533766150474548,23.337278366088867
1.146835207939148,-0.15536068379878998,23.3443660736084
1.0753787755966187,-0.15538503229618073,23.35143280029297
1.0039005279541016,-0.15541104972362518,23.358531951904297
0.9323967695236206,-0.1554383784532547,23.365610122680664
0.8608682155609131,-0.15546736121177673,23.372718811035156
0.7893114686012268,-0.15549765527248383,23.379806518554688
0.7177261114120483,-0.1555294245481491,23.38689422607422
0.6461108922958374,-0.15556268393993378,23.39398765563965
0.5744650959968567,-0.15559761226177216,23.401113510131836
