-7.136595613760446710e+00,3.761177361011505127e-01,-5.726507880065920819e-01
-7.149156332669847735e+00,3.778410553932189941e-01,-5.732088108125041881e-01
-7.161829882033964090e+00,3.795934021472930908e-01,-5.737758792539231489e-01
-7.174627726040974096e+00,3.813785314559936523e-01,-5.743415214857541251e-01
-6.943487300449157296e+00,8.417455554008483887e-01,1.884793806813116035e+00
-6.406084748649368166e+00,2.950875759124755859e-01,-5.397883435345767200e-01
-6.414452585051861000e+00,2.954299449920654297e-01,-5.401555300009786009e-01
-6.422838583373152943e+00,2.957828342914581299e-01,-5.405301093968808424e-01
-6.431243428470636125e+00,2.961463034152984619e-01,-5.409116839203711447e-01
-6.439671895098658894e+00,2.965241670608520508e-01,-5.412839990618223407e-01
-6.448120514376459944e+00,2.969127297401428223e-01,-5.416637504241939016e-01
-6.456592082415573586e+00,2.973139286041259766e-01,-5.420428229873883730e-01
-6.465087374332060932e+00,2.977277636528015137e-01,-5.424212269151100774e-01
-6.473604450668821286e+00,2.981522679328918457e-01,-5.428084990202282079e-01
-6.482149223942244909e+00,2.985916137695312500e-01,-5.431863784060320111e-01
-6.490717042976792861e+00,2.990416288375854492e-01,-5.435738036726984745e-01
-6.499311504848757970e+00,2.995046079158782959e-01,-5.439609171292214551e-01
-6.507935816428003228e+00,2.999824881553649902e-01,-5.443399941522313323e-01
-6.516585384411450299e+00,3.004713058471679688e-01,-5.447286088025293793e-01
-6.525263641446632512e+00,3.009731769561767578e-01,-5.451181061101566527e-01
-6.533971289674084026e+00,3.014880716800689697e-01,-5.455088490677655333e-01
-6.542709142150789248e+00,3.020161688327789307e-01,-5.459008606546082998e-01
-6.551478023404246009e+00,3.025575578212738037e-01,-5.462941677244064209e-01
-6.560278487392274371e+00,3.031121492385864258e-01,-5.466895865216656603e-01
-6.569109797611678125e+00,3.036790490150451660e-01,-5.470915238394280511e-01
-6.577974146438233305e+00,3.042593002319335938e-01,-5.474960646441093814e-01
-6.586875451394946346e+00,3.048549890518188477e-01,-5.478949693975063706e-01
-6.595807732491675068e+00,3.054618537425994873e-01,-5.483067278575248782e-01
-6.604770126790325158e+00,3.060791194438934326e-01,-5.487353266321166601e-01
-6.613770226121353346e+00,3.067110776901245117e-01,-5.491629462311782284e-01
-6.622807212597948023e+00,3.073568642139434814e-01,-5.495940917844055473e-01
-6.631882012425203143e+00,3.080165982246398926e-01,-5.500286986636953035e-01
-6.640995294681433236e+00,3.086903095245361328e-01,-5.504673703463025536e-01
-6.650152000465126889e+00,3.093804121017456055e-01,-5.509005772941342194e-01
-6.659344972423004272e+00,3.100824356079101562e-01,-5.513476698407775434e-01
-6.668583306373158770e+00,3.108011484146118164e-01,-5.517894491159081038e-01
-6.677863532141163461e+00,3.115342259407043457e-01,-5.522364448055960828e-01
-6.687190761585450005e+00,3.122839927673339844e-01,-5.526794367026757193e-01
-6.696562201293106753e+00,3.130486309528350830e-01,-5.531270440432598523e-01
-6.705978350775713359e+00,3.138279914855957031e-01,-5.535804421595587055e-01
-6.715444585921149567e+00,3.146245181560516357e-01,-5.540303742012133714e-01
-6.724953146681538207e+00,3.154338598251342773e-01,-5.544954836212903082e-01
-6.734518393015636484e+00,3.162629604339599609e-01,-5.549481577363777340e-01
-6.744132299340700243e+00,3.171073198318481445e-01,-5.554074536126025752e-01
-6.753796072863556432e+00,3.179672956466674805e-01,-5.558731498853859421e-01
-6.763510540810326432e+00,3.188428878784179688e-01,-5.563457776244642439e-01
-6.773286137155731801e+00,3.197387754917144775e-01,-5.568073449140231723e-01
-6.783109854527408444e+00,3.206483423709869385e-01,-5.572854180048090189e-01
-6.792992320341764589e+00,3.215763270854949951e-01,-5.577619444949308836e-01
-6.802934768535314092e+00,3.225229084491729736e-01,-5.582370895268300437e-01
-6.812933196826795879e+00,3.234858810901641846e-01,-5.587206997489404525e-01
-6.822994037221882024e+00,3.244678676128387451e-01,-5.592033717381299507e-01
-6.833118465681456755e+00,3.254689574241638184e-01,-5.596856285324016689e-01
-6.843302439077020516e+00,3.264870643615722656e-01,-5.601769255045920826e-01
-6.853552514966798626e+00,3.275246918201446533e-01,-5.606682791186254899e-01
-6.863864394600931895e+00,3.285796344280242920e-01,-5.611694358828280826e-01
-6.874250716109931325e+00,3.296570181846618652e-01,-5.616615126537107816e-01
-6.884701468733429586e+00,3.307521939277648926e-01,-5.621639025601361528e-01
-6.895217820024220678e+00,3.318652808666229248e-01,-5.626768741478105351e-01
-6.905812888109595704e+00,3.330015540122985840e-01,-5.631817064048492139e-01
-6.916476190640496569e+00,3.341561555862426758e-01,-5.636978848208071824e-01
-6.927221830081043308e+00,3.353346586227416992e-01,-5.642056367822605445e-01
-6.938052610739101844e+00,3.365376889705657959e-01,-5.647036446481643601e-01
-6.948963276257669186e+00,3.377627134323120117e-01,-5.652030930354039473e-01
-6.959955049154329387e+00,3.390099108219146729e-01,-5.657046465338599894e-01
-6.971022656255903449e+00,3.402768373489379883e-01,-5.662189807758244431e-01
-6.982180696839463074e+00,3.415688574314117432e-01,-5.667269942640689173e-01
-6.993417527905826603e+00,3.428811430931091309e-01,-5.672485354046044037e-01
-7.004747916637274585e+00,3.442190289497375488e-01,-5.677649368929886808e-01
-7.016167424613843906e+00,3.455804288387298584e-01,-5.682855205819143940e-01
-7.027670516138324608e+00,3.469628989696502686e-01,-5.688206217769999906e-01
-7.039272873335270297e+00,3.483720421791076660e-01,-5.693513789152639948e-01
-7.050969177980216607e+00,3.498055040836334229e-01,-5.698879491072545989e-01
-7.062761673570774335e+00,3.512637317180633545e-01,-5.704302093707629417e-01
-7.074655559625874446e+00,3.527483344078063965e-01,-5.709741279792297508e-01
-7.086654717903615897e+00,3.542602956295013428e-01,-5.715176187938286745e-01
-7.098763511664294867e+00,3.558008670806884766e-01,-5.720583808374677393e-01
-7.110977495585278696e+00,3.573679924011230469e-01,-5.726051045006765872e-01
-7.123298002113731542e+00,3.589618802070617676e-01,-5.731592464616828142e-01
-7.135727273241842639e+00,3.605829477310180664e-01,-5.737210607081448810e-01
-7.148275582767137593e+00,3.622344434261322021e-01,-5.742808057441397551e-01
-7.160937688762381903e+00,3.639141321182250977e-01,-5.748484127993775950e-01
-7.173724469381223656e+00,3.656254112720489502e-01,-5.754138412107125955e-01
-7.319099154202604929e+00,4.123016297817230225e-01,-4.206703579716541963e-01
-8.537165810485877415e+00,8.196086287498474121e-01,9.722823849535968677e-01
-9.778404457105146719e+00,1.228948235511779785e+00,2.357239442626815062e+00
-6.943965034674367764e+00,8.068159818649291992e-01,1.886915931887609421e+00
-6.406257436407591044e+00,2.828430235385894775e-01,-5.390426444788471994e-01
-6.414630078799537394e+00,2.831712365150451660e-01,-5.394099443818116679e-01
-6.423020890169058639e+00,2.835094630718231201e-01,-5.397846395985648194e-01
-6.431430462104038348e+00,2.838578224182128906e-01,-5.401666783013137074e-01
-6.439863808164008496e+00,2.842200398445129395e-01,-5.405390058603503078e-01
-6.448317275783919555e+00,2.845925092697143555e-01,-5.409188849650143904e-01
-6.456793706282695666e+00,2.849770486354827881e-01,-5.412980900390780281e-01
-6.465293805537949190e+00,2.853737175464630127e-01,-5.416768595113699014e-01
-6.473815765510700260e+00,2.857806086540222168e-01,-5.420642712802214991e-01
-6.482365374357993204e+00,2.862016856670379639e-01,-5.424425257477489826e-01
-6.490938139882863389e+00,2.866330742835998535e-01,-5.428299860827401346e-01
-6.499537531272864044e+00,2.870768606662750244e-01,-5.432172547008704555e-01
-6.508166717249247668e+00,2.875348627567291260e-01,-5.435967199191893418e-01
-6.516821277605060914e+00,2.880034446716308594e-01,-5.439853851356857284e-01
-6.525504435507791356e+00,2.884844541549682617e-01,-5.443752795797027755e-01
-6.534217073252876595e+00,2.889780104160308838e-01,-5.447661979653695141e-01
-6.542959969278074439e+00,2.894842028617858887e-01,-5.451582774045007351e-01
-6.551733250847692425e+00,2.900027334690093994e-01,-5.455535741019139628e-01
-6.560538271275720312e+00,2.905340194702148438e-01,-5.459505319572592885e-01
-6.569374377414963107e+00,2.910772860050201416e-01,-5.463533342670305881e-01
-6.578243612576133437e+00,2.916333675384521484e-01,-5.467585189514609922e-01
-6.587150106201631772e+00,2.922043800354003906e-01,-5.471572889231204329e-01
-6.596087986363030176e+00,2.927863895893096924e-01,-5.475679187883759624e-01
-6.605060820602432159e+00,2.933811545372009277e-01,-5.479829315765654130e-01
-6.614064435772758266e+00,2.939859330654144287e-01,-5.484151360485740589e-01
-6.623106728062599480e+00,2.946049571037292480e-01,-5.488463122148239393e-01
-6.632186666991099599e+00,2.952372729778289795e-01,-5.492813967002332376e-01
-6.641305342620622554e+00,2.958830893039703369e-01,-5.497200027454629545e-01
-6.650467229858216811e+00,2.965445220470428467e-01,-5.501537016051445406e-01
-6.659665630483266874e+00,2.972174882888793945e-01,-5.506007404358514989e-01
-6.668909285713533919e+00,2.979063689708709717e-01,-5.510428072005895128e-01
-6.678194892086592560e+00,2.986090183258056641e-01,-5.514899845923311172e-01
-6.687527492222422154e+00,2.993277311325073242e-01,-5.519332806690360194e-01
-6.696904330856728649e+00,3.000606298446655273e-01,-5.523812017263984853e-01
-6.706325879265985002e+00,3.008076250553131104e-01,-5.528349135594756714e-01
-6.715797593839339719e+00,3.015711009502410889e-01,-5.532850606832200313e-01
-6.725311819061245977e+00,3.023469448089599609e-01,-5.537500702070146108e-01
-6.734882482643590684e+00,3.031415939331054688e-01,-5.542031900536048550e-01
-6.744501953101886826e+00,3.039509654045104980e-01,-5.546627296233788140e-01
-6.754171371259245049e+00,3.047752678394317627e-01,-5.551285709550228820e-01
-6.763891393425739196e+00,3.056145012378692627e-01,-5.556015648652221639e-01
-6.773672781290633438e+00,3.064732849597930908e-01,-5.560630751756874268e-01
-6.783502085321181596e+00,3.073450922966003418e-01,-5.565416512208949396e-01
-6.793390280475354537e+00,3.082346022129058838e-01,-5.570183513813367071e-01
-6.803338500361377328e+00,3.091419339179992676e-01,-5.574936843892854821e-01
-6.813342704549374851e+00,3.100649416446685791e-01,-5.579776098335935686e-01
-6.823409349076081654e+00,3.110061883926391602e-01,-5.584606065821335896e-01
-6.833539619815890198e+00,3.119657635688781738e-01,-5.589430751953381460e-01
-6.843729586580717950e+00,3.129416406154632568e-01,-5.594345091946548720e-01
-6.853985551307431479e+00,3.139362037181854248e-01,-5.599262161794984483e-01
-6.864303557078264006e+00,3.149474561214447021e-01,-5.604273031642972303e-01
-6.874695719362077462e+00,3.159801065921783447e-01,-5.609199687239798671e-01
-6.885152578295258508e+00,3.170298337936401367e-01,-5.614225338061444859e-01
-6.895675158749658529e+00,3.180968165397644043e-01,-5.619355962405996330e-01
-6.906276190463774611e+00,3.191858530044555664e-01,-5.624409329574788785e-01
-6.916945684009672135e+00,3.202925920486450195e-01,-5.629573151606355186e-01
-6.927698727693718972e+00,3.214226663112640381e-01,-5.634635416652391537e-01
-6.938535945074626454e+00,3.225758373737335205e-01,-5.639615846604244531e-01
-6.949452942783713283e+00,3.237500786781311035e-01,-5.644612845206280483e-01
-6.960451198959924035e+00,3.249455690383911133e-01,-5.649630147002422387e-01
-6.971525194722226537e+00,3.261599242687225342e-01,-5.654776194894772789e-01
-6.982689614053006366e+00,3.273983299732208252e-01,-5.659860260025637579e-01
-6.993932974955621162e+00,3.286561667919158936e-01,-5.665078853761356115e-01
-7.005270120909576903e+00,3.299385905265808105e-01,-5.670243044249134723e-01
-7.016696309811428556e+00,3.312435448169708252e-01,-5.675451315550694709e-01
-7.028206205115116845e+00,3.325687348842620850e-01,-5.680803918624266480e-01
-7.039815166940119440e+00,3.339193761348724365e-01,-5.686116183227578613e-01
-7.051518398218201256e+00,3.352934122085571289e-01,-5.691482632980611189e-01
-7.063317649525846065e+00,3.366911113262176514e-01,-5.696909180918305893e-01
-7.075216595061913694e+00,3.381134867668151855e-01,-5.702375522827378695e-01
-7.087218955581963797e+00,3.395614326000213623e-01,-5.707862770013341080e-01
-7.099330838644533515e+00,3.410367369651794434e-01,-5.713322348003577744e-01
-7.111547418946282839e+00,3.425373733043670654e-01,-5.718848685046540314e-01
-7.123870730920160987e+00,3.440636992454528809e-01,-5.724444878193810649e-01
-7.136302751023488433e+00,3.456160724163055420e-01,-5.730117603452575814e-01
-7.148853638607953975e+00,3.471975326538085938e-01,-5.735772834076149351e-01
-7.161518853732102841e+00,3.488062322139739990e-01,-5.741498412630949844e-01
-7.174312171089866297e+00,3.504463136196136475e-01,-5.747162193696293553e-01
-7.187223558331874429e+00,3.521141707897186279e-01,-5.752917771279582038e-01
-7.200255350563717904e+00,3.538101911544799805e-01,-5.758770516294955399e-01
-7.213418612165852117e+00,3.555376231670379639e-01,-5.764625684186053256e-01
-7.226714825169054279e+00,3.572965860366821289e-01,-5.770500863515768408e-01
-7.240137708344466461e+00,3.590847253799438477e-01,-5.776501922154857471e-01
-7.253691394555291438e+00,3.609029650688171387e-01,-5.782616396456174979e-01
-7.267395672940592632e+00,3.627572655677795410e-01,-5.788660735488890818e-01
-7.281234757724476481e+00,3.646422326564788818e-01,-5.794847111735972334e-01
-7.295220467227134797e+00,3.665612637996673584e-01,-5.801080810749446037e-01
-7.309346747605967920e+00,3.685120940208435059e-01,-5.807464693673649592e-01
-7.323627610230238005e+00,3.704987168312072754e-01,-5.813887546700766684e-01
-7.778908133533721347e+00,5.055583119392395020e-01,-1.307265086410835941e-01
-9.280504535370935670e+00,9.527412056922912598e-01,1.366848630061920034e+00
-6.943349982754653205e+00,7.709746360778808594e-01,1.884183880449000537e+00
-6.406037332322719990e+00,2.702794969081878662e-01,-5.399930264324530604e-01
-6.414403844373923747e+00,2.705930769443511963e-01,-5.403602688686732769e-01
-6.422788614468166735e+00,2.709163427352905273e-01,-5.407344333984143159e-01
-6.431192020768523143e+00,2.712491750717163086e-01,-5.411164027129773402e-01
-6.439619304376885900e+00,2.715953588485717773e-01,-5.414881924321373052e-01
-6.448066571068292951e+00,2.719512283802032471e-01,-5.418679902271741344e-01
-6.456536872731744481e+00,2.723187506198883057e-01,-5.422467608646259762e-01
-6.465030773913225559e+00,2.726977765560150146e-01,-5.426253241654310777e-01
-6.473546583874324689e+00,2.730866074562072754e-01,-5.430122943448063566e-01
-6.482089928264128886e+00,2.734889984130859375e-01,-5.433904460441119078e-01
-6.490656543102689469e+00,2.739012539386749268e-01,-5.437773387356221733e-01
-6.499249561973483580e+00,2.743252515792846680e-01,-5.441647197370700351e-01
-6.507872634737514872e+00,2.747630178928375244e-01,-5.445433783174868925e-01
-6.516520783750850754e+00,2.752107083797454834e-01,-5.449321428037152693e-01
-6.525197652905758261e+00,2.756703495979309082e-01,-5.453216746225659772e-01
-6.533903981609037181e+00,2.761420011520385742e-01,-5.457122235282374501e-01
-6.542640474648262483e+00,2.766256928443908691e-01,-5.461041534074893011e-01
-6.551406127389917344e+00,2.771204113960266113e-01,-5.465027870942240629e-01
-6.560203214216462797e+00,2.776271998882293701e-01,-5.469037339503008965e-01
-6.569032803546969390e+00,2.781462669372558594e-01,-5.473063482535445168e-01
-6.577895453750992161e+00,2.786776125431060791e-01,-5.477114477386402225e-01
-6.586795424599014126e+00,2.792232930660247803e-01,-5.481099018615516183e-01
-6.595726798955222847e+00,2.797794640064239502e-01,-5.485200957847764514e-01
-6.604697064117741157e+00,2.803500592708587646e-01,-5.489244263618953124e-01
-6.613699130154106598e+00,2.809306979179382324e-01,-5.493436507869864371e-01
-6.622734942019130600e+00,2.815222442150115967e-01,-5.497745254102182066e-01
-6.631808341197870327e+00,2.821264564990997314e-01,-5.502094141401630001e-01
-6.640920486991142013e+00,2.827436029911041260e-01,-5.506477019523563499e-01
-6.650075920689711317e+00,2.833756804466247559e-01,-5.510808566981650891e-01
-6.659267832481853944e+00,2.840188145637512207e-01,-5.515273394935580331e-01
-6.668504654192387804e+00,2.846770286560058594e-01,-5.519696145787389430e-01
-6.677783729379882516e+00,2.853485345840454102e-01,-5.524162216294370431e-01
-6.687109696652551172e+00,2.860353291034698486e-01,-5.528590388469216688e-01
-6.696479850157531111e+00,2.867356836795806885e-01,-5.533065892169057864e-01
-6.705894803852238795e+00,2.874495685100555420e-01,-5.537597092503445673e-01
-6.715359710442340813e+00,2.881791591644287109e-01,-5.542095700156692839e-01
-6.724867127680993484e+00,2.889205515384674072e-01,-5.546742931810446642e-01
-6.734431045459758458e+00,2.896799445152282715e-01,-5.551268960198021407e-01
-6.744043675495653645e+00,2.904533743858337402e-01,-5.555860124478555484e-01
-6.753706172729340373e+00,2.912410795688629150e-01,-5.560515292724674818e-01
-6.763419283885671263e+00,2.920430600643157959e-01,-5.565240761980632112e-01
-6.773193537558190869e+00,2.928636372089385986e-01,-5.569855674427159897e-01
-6.783016083173028399e+00,2.936968505382537842e-01,-5.574632447416469905e-01
-6.792897125813228243e+00,2.945468425750732422e-01,-5.579397938215509001e-01
-6.802838203098787950e+00,2.954138517379760742e-01,-5.584148532713906210e-01
-6.812835379132160085e+00,2.962959408760070801e-01,-5.588981663363348229e-01
-6.822894796353089930e+00,2.971953749656677246e-01,-5.593808609153065881e-01
-6.833017944319450976e+00,2.981123924255371094e-01,-5.598628110152588100e-01
-6.843200560924576514e+00,2.990449070930480957e-01,-5.603540271739659850e-01
-6.853449356321141828e+00,2.999953627586364746e-01,-5.608450740936805623e-01
-6.863760059994391760e+00,3.009617328643798828e-01,-5.613457078198800243e-01
-6.874144835475308746e+00,3.019485175609588623e-01,-5.618378915095039172e-01
-6.884594203073262975e+00,3.029516339302062988e-01,-5.623401910652929825e-01
-6.895109340254559349e+00,3.039712905883789062e-01,-5.628527525553836952e-01
-6.905702966844182278e+00,3.050120174884796143e-01,-5.633574753874801555e-01
-6.916364827879331045e+00,3.060696125030517578e-01,-5.638735443784954615e-01
-6.927112316774874046e+00,3.071502745151519775e-01,-5.643760072145962425e-01
-6.937942177093409768e+00,3.082523941993713379e-01,-5.648732009070083215e-01
-6.948851467499941315e+00,3.093745112419128418e-01,-5.653724364660406287e-01
-6.959841988138493640e+00,3.105169534683227539e-01,-5.658736928073300199e-01
-6.970908352895465399e+00,3.116774857044219971e-01,-5.663876074145568484e-01
-6.982064885599556625e+00,3.128609061241149902e-01,-5.668956148811241658e-01
-6.993300180551345946e+00,3.140628635883331299e-01,-5.674171404628296500e-01
-7.004629459705627781e+00,3.152884542942047119e-01,-5.679329155099461790e-01
-7.016047592570162195e+00,3.165354430675506592e-01,-5.684532863706643901e-01
-7.027549214363784991e+00,3.178017437458038330e-01,-5.689882686036547010e-01
-7.039150073594768742e+00,3.190924525260925293e-01,-5.695188972426703522e-01
-7.050845069511399110e+00,3.204055130481719971e-01,-5.700551512031883927e-01
-7.062636266287145581e+00,3.217412829399108887e-01,-5.705969727576525319e-01
-7.074525026109699688e+00,3.230999112129211426e-01,-5.711454511515763333e-01
-7.086514453959568804e+00,3.244821131229400635e-01,-5.716994961301709033e-01
-7.098612685549998247e+00,3.258902728557586670e-01,-5.722514121776716145e-01
-7.110814895577645345e+00,3.273224532604217529e-01,-5.728106421189227415e-01
-7.123122663702949886e+00,3.287788927555084229e-01,-5.733780970043664826e-01
-7.135538553923176153e+00,3.302600085735321045e-01,-5.739536362829078531e-01
-7.148071968639442275e+00,3.317686319351196289e-01,-5.745286082087732726e-01
-7.160719408717329593e+00,3.333032131195068359e-01,-5.751107645113731071e-01
-7.173498551060311534e+00,3.348689973354339600e-01,-5.756820432431688506e-01
-7.186396578213740227e+00,3.364616036415100098e-01,-5.762613928023019305e-01
-7.199417624546235572e+00,3.380819857120513916e-01,-5.768471898541909226e-01
-7.212571826571635647e+00,3.397329449653625488e-01,-5.774310306190442166e-01
-7.225859358473388561e+00,3.414141535758972168e-01,-5.780164970633112631e-01
-7.239273769612012188e+00,3.431233167648315430e-01,-5.786141187511488759e-01
-7.252820857840884372e+00,3.448618650436401367e-01,-5.792210726682442967e-01
-7.266518538244231884e+00,3.466348648071289062e-01,-5.798210130584799948e-01
-7.280350950254357301e+00,3.484371900558471680e-01,-5.804350060811211964e-01
-7.294330289161319314e+00,3.502721488475799561e-01,-5.810535817967905636e-01
-7.308449915087988913e+00,3.521374464035034180e-01,-5.816874575018684546e-01
-7.322724578032608456e+00,3.540370464324951172e-01,-5.823246288719532426e-01
-7.337165087635267646e+00,3.559737801551818848e-01,-5.829580519285302298e-01
-7.351754924007353864e+00,3.579424917697906494e-01,-5.836086959539157348e-01
-7.366507509472767445e+00,3.599466681480407715e-01,-5.842666246890095838e-01
-7.381417566966497645e+00,3.619845211505889893e-01,-5.849411283642069748e-01
-7.396509548055126615e+00,3.640626072883605957e-01,-5.856121552654562912e-01
-7.411775488198023787e+00,3.661783039569854736e-01,-5.862917368147060326e-01
-7.427218662667319116e+00,3.683322072029113770e-01,-5.869809793217199978e-01
-7.442856649487968212e+00,3.705287873744964600e-01,-5.876677012678062084e-01
-7.458668751737870473e+00,3.727619647979736328e-01,-5.883757391198827236e-01
-7.474650696515858783e+00,3.750302493572235107e-01,-5.891130865516629456e-01
-7.490790740550113291e+00,3.773302137851715088e-01,-5.898940217501074113e-01
-7.507149496869828020e+00,3.796780705451965332e-01,-5.906678007841013045e-01
-7.523700803499101752e+00,3.820663094520568848e-01,-5.914627054601804268e-01
-7.540473128916460155e+00,3.845022618770599365e-01,-5.922581534907012113e-01
-7.557469250956651230e+00,3.869862556457519531e-01,-5.930570963807308971e-01
-7.574679408826852978e+00,3.895152807235717773e-01,-5.938729720384809951e-01
-7.592112055985691832e+00,3.920912444591522217e-01,-5.947034769721646352e-01
-7.609795067350074049e+00,3.947210311889648438e-01,-5.955303449254218950e-01
-8.145216588503622290e+00,5.323392152786254883e-01,-1.721356385814432066e-01
-1.043024281874346926e+01,1.122534036636352539e+00,1.656905787371083072e+00
-6.943789492138070507e+00,7.362345457077026367e-01,1.886136217447067498e+00
-6.406196325755312060e+00,2.581013143062591553e-01,-5.393064955994104626e-01
-6.414567245649772431e+00,2.584007978439331055e-01,-5.396738428139093990e-01
-6.422956420732541361e+00,2.587094604969024658e-01,-5.400482369837882324e-01
-6.431364270170035979e+00,2.590273320674896240e-01,-5.404303229980715884e-01
-6.439795972884477138e+00,2.593578994274139404e-01,-5.408023471259459924e-01
-6.448247734979187129e+00,2.596977651119232178e-01,-5.411821534488610030e-01
-6.456722452893985498e+00,2.600486874580383301e-01,-5.415612833568879125e-01
-6.465220870655098651e+00,2.604106664657592773e-01,-5.419398623384357183e-01
-6.473741079895260597e+00,2.607819437980651855e-01,-5.423273118816684946e-01
-6.482288930951186856e+00,2.611661851406097412e-01,-5.427056017392881682e-01
-6.490860070102812074e+00,2.615598738193511963e-01,-5.430926385498338060e-01
-6.499457589255609236e+00,2.619647681713104248e-01,-5.434802813793120357e-01
-6.508085138270585546e+00,2.623828053474426270e-01,-5.438593194967531463e-01
-6.516737957807316128e+00,2.628103792667388916e-01,-5.442479000100590714e-01
-6.525419256915739652e+00,2.632492482662200928e-01,-5.446380473799965483e-01
-6.534129614467085290e+00,2.636992931365966797e-01,-5.450304604401123854e-01
-6.542870014849764715e+00,2.641608119010925293e-01,-5.454245909107748869e-01
-6.551640186195019311e+00,2.646331787109375000e-01,-5.458236184402640578e-01
-6.560441885569330722e+00,2.651171386241912842e-01,-5.462247392189796269e-01
-6.569276021738541971e+00,2.656127810478210449e-01,-5.466277569021309457e-01
-6.578143274576822463e+00,2.661201655864715576e-01,-5.470331527874368049e-01
-6.587047942003268375e+00,2.666412591934204102e-01,-5.474316833904424584e-01
-6.595983992436227794e+00,2.671723961830139160e-01,-5.478420726949002617e-01
-6.604955681442139515e+00,2.677155137062072754e-01,-5.482550629106266449e-01
-6.613966469019937122e+00,2.682721614837646484e-01,-5.486641473503759414e-01
-6.623009593107807014e+00,2.688383758068084717e-01,-5.490888098678783358e-01
-6.632089144584152329e+00,2.694160342216491699e-01,-5.495206178280573894e-01
-6.641206128806026676e+00,2.700053751468658447e-01,-5.499591558601146790e-01
-6.650366415050749325e+00,2.706089913845062256e-01,-5.503925655943637807e-01
-6.659563155357987263e+00,2.712231278419494629e-01,-5.508394210871918606e-01
-6.668804969440886410e+00,2.718517184257507324e-01,-5.512817467385706660e-01
-6.678088960703520982e+00,2.724929451942443848e-01,-5.517286302363033634e-01
-6.687419879345210205e+00,2.731488049030303955e-01,-5.521717358222648642e-01
-6.696795036485375441e+00,2.738175988197326660e-01,-5.526194663888830405e-01
-6.706214955666656152e+00,2.744993567466735840e-01,-5.530728795593746749e-01
-6.715685012776929419e+00,2.751960754394531250e-01,-5.535227184833804159e-01
-6.725197451972364959e+00,2.759040892124176025e-01,-5.539877538601147844e-01
-6.734766472209181565e+00,2.766292691230773926e-01,-5.544405702755428322e-01
-6.744384128405902068e+00,2.773678302764892578e-01,-5.549001261611030689e-01
-6.754051822716462539e+00,2.781200706958770752e-01,-5.553657626962735794e-01
-6.763770173302323663e+00,2.788859605789184570e-01,-5.558384436381578197e-01
-6.773549680521925076e+00,2.796695828437805176e-01,-5.563000736676746438e-01
-6.783377375151514066e+00,2.804652154445648193e-01,-5.567781060951539907e-01
-6.793263727809007335e+00,2.812769412994384766e-01,-5.572548130342289685e-01
-6.803210091080797106e+00,2.821048796176910400e-01,-5.577301480522343091e-01
-6.813212685867833684e+00,2.829472720623016357e-01,-5.582135298788140076e-01
-6.823277550077534670e+00,2.838062345981597900e-01,-5.586963027565743367e-01
-6.833405935968006162e+00,2.846818566322326660e-01,-5.591787638426821694e-01
-6.843594122415828096e+00,2.855724096298217773e-01,-5.596699739712196475e-01
-6.853848383122759458e+00,2.864800691604614258e-01,-5.601612312044466080e-01
-6.864164504044254933e+00,2.874028980731964111e-01,-5.606623106621495545e-01
-6.874554934073182189e+00,2.883452773094177246e-01,-5.611545169330625082e-01
-6.885009879921922149e+00,2.893031835556030273e-01,-5.616570649509773361e-01
-6.895530595354001591e+00,2.902769148349761963e-01,-5.621698749031931452e-01
-6.906129752132288857e+00,2.912707328796386719e-01,-5.626750816154051371e-01
-6.916797408890970722e+00,2.922807037830352783e-01,-5.631912208734752845e-01
-6.927551745736010957e+00,2.933130860328674316e-01,-5.636922220019600083e-01
-6.938387486483392763e+00,2.943655550479888916e-01,-5.641895145728863525e-01
-6.949302751937592504e+00,2.954371869564056396e-01,-5.646887551443211528e-01
-6.960299104942870407e+00,2.965281605720520020e-01,-5.651903457821141341e-01
-6.971371529452824234e+00,2.976364493370056152e-01,-5.657042940132024356e-01
-6.982533950993850880e+00,2.987665534019470215e-01,-5.662126548505799217e-01
-6.993775446874144208e+00,2.999144196510314941e-01,-5.667342617419128814e-01
-7.005110633186957259e+00,3.010847270488739014e-01,-5.672505221745638426e-01
-7.016534900596279378e+00,3.022755682468414307e-01,-5.677710777481745907e-01
-7.028042808023720944e+00,3.034848868846893311e-01,-5.683061699022509128e-01
-7.039650075742449609e+00,3.047175109386444092e-01,-5.688368241333947584e-01
-7.051351357292896971e+00,3.059714436531066895e-01,-5.693731880149992541e-01
-7.063148620724295945e+00,3.072469532489776611e-01,-5.699156746554883135e-01
-7.075043863826399715e+00,3.085443973541259766e-01,-5.704643297305707073e-01
-7.087039585718175161e+00,3.098643422126770020e-01,-5.710187391225476361e-01
-7.099144451677184442e+00,3.112091124057769775e-01,-5.715707570594008580e-01
-7.111353352543622997e+00,3.125768303871154785e-01,-5.721301079643112963e-01
-7.123667867977927060e+00,3.139676749706268311e-01,-5.726977028877204834e-01
-7.136090221650687404e+00,3.153820335865020752e-01,-5.732736638025630604e-01
-7.148630685854013400e+00,3.168227970600128174e-01,-5.738486261827822066e-01
-7.161284058314699053e+00,3.182879686355590820e-01,-5.744320313478039619e-01
-7.174065174360727326e+00,3.197817802429199219e-01,-5.750093872731860678e-01
-7.186966368618690204e+00,3.213015496730804443e-01,-5.755933297369997259e-01
-7.199994653675889644e+00,3.228490352630615234e-01,-5.761789295110189002e-01
-7.213155941831542961e+00,3.244256377220153809e-01,-5.767630247596746695e-01
-7.226450503393341940e+00,3.260311186313629150e-01,-5.773487266134380569e-01
-7.239872095281040032e+00,3.276633024215698242e-01,-5.779465089189665949e-01
-7.253424603144570604e+00,3.293230235576629639e-01,-5.785556709393304686e-01
-7.267128214425295774e+00,3.310157656669616699e-01,-5.791572371618556314e-01
-7.280967010579892928e+00,3.327366411685943604e-01,-5.797726316413691627e-01
-7.294953037314805044e+00,3.344887495040893555e-01,-5.803920822604318186e-01
-7.309079937103953206e+00,3.362699449062347412e-01,-5.810264016869559622e-01
-7.323362214237725709e+00,3.380840122699737549e-01,-5.816637542544571549e-01
-7.337810734826419434e+00,3.399336040019989014e-01,-5.822971150587272771e-01
-7.352408960659826853e+00,3.418137729167938232e-01,-5.829473213673574961e-01
-7.367170616239912206e+00,3.437280356884002686e-01,-5.836042873376365847e-01
-7.382090273412629244e+00,3.456745445728302002e-01,-5.842773779917653787e-01
-7.397190775224595782e+00,3.476591706275939941e-01,-5.849481373395961636e-01
-7.412464970555960875e+00,3.496795892715454102e-01,-5.856278649484887300e-01
-7.427916323916498698e+00,3.517364561557769775e-01,-5.863174793959811115e-01
-7.443562640717422241e+00,3.538340628147125244e-01,-5.870044984907407670e-01
-7.459383129417808789e+00,3.559666275978088379e-01,-5.877128525657964175e-01
-7.475373517116489452e+00,3.581327199935913086e-01,-5.884505352948625756e-01
-7.491522173482062286e+00,3.603290915489196777e-01,-5.892318630135116031e-01
-7.507889296425245718e+00,3.625711202621459961e-01,-5.900062032256274680e-01
-7.524446642356057424e+00,3.648510575294494629e-01,-5.908039027922107334e-01
-7.541223190995746783e+00,3.671760857105255127e-01,-5.916037971546395102e-01
-7.558223820114733371e+00,3.695470094680786133e-01,-5.924069047782414277e-01
-7.575438636152761696e+00,3.719609975814819336e-01,-5.932268703777567875e-01
-7.592875166207257998e+00,3.744195699691772461e-01,-5.940620841673782682e-01
-7.610562608353211189e+00,3.769297003746032715e-01,-5.948933427350440173e-01
-7.628480459422418036e+00,3.794858753681182861e-01,-5.957431639058463624e-01
-7.646641330079983589e+00,3.820907771587371826e-01,-5.966066219585406394e-01
-7.665067096108436395e+00,3.847496211528778076e-01,-5.974714771422415804e-01
-6.943235404353510276e+00,7.007478475570678711e-01,1.883674987055700800e+00
-6.405998191345446457e+00,2.456618845462799072e-01,-5.401621275815355894e-01
-6.414363648784272343e+00,2.459469288587570190e-01,-5.405291396206612919e-01
-6.422747229993285956e+00,2.462406903505325317e-01,-5.409036575297052618e-01
-6.431149595798816954e+00,2.465432435274124146e-01,-5.412854012157506389e-01
-6.439575769673906436e+00,2.468578964471817017e-01,-5.416571935715175368e-01
-6.448021933690815999e+00,2.471813261508941650e-01,-5.420369963874496211e-01
-6.456491156710830737e+00,2.475153654813766479e-01,-5.424156543368023886e-01
-6.464983934041486080e+00,2.478598803281784058e-01,-5.427942155056377782e-01
-6.473498665359148418e+00,2.482133209705352783e-01,-5.431810729969133167e-01
-6.482040885898126881e+00,2.485790103673934937e-01,-5.435592225642493780e-01
-6.490606411505085660e+00,2.489537447690963745e-01,-5.439459989912280857e-01
-6.499198337614890519e+00,2.493391335010528564e-01,-5.443332625360000065e-01
-6.507820210230870650e+00,2.497369796037673950e-01,-5.447121448652831877e-01
-6.516467255895053157e+00,2.501439154148101807e-01,-5.451007883184029179e-01
-6.525142876165132222e+00,2.505615949630737305e-01,-5.454906532501069272e-01
-6.533846187704511976e+00,2.509891986846923828e-01,-5.458868518132991010e-01
-6.542579665759914676e+00,2.514277696609497070e-01,-5.462841804342075669e-01
-6.551343863406814627e+00,2.518773078918457031e-01,-5.466834550593020481e-01
-6.560139800327505100e+00,2.523379623889923096e-01,-5.470841393303929046e-01
-6.568968076569541736e+00,2.528097033500671387e-01,-5.474869392338910234e-01
-6.577829489982319977e+00,2.532926499843597412e-01,-5.478919984384047481e-01
-6.586728216980323403e+00,2.537886202335357666e-01,-5.482904098964456185e-01
-6.595658427313123795e+00,2.542941570281982422e-01,-5.487003364661076077e-01
-6.604624133537934760e+00,2.548111081123352051e-01,-5.491131932311394959e-01
-6.613629740804808144e+00,2.553412914276123047e-01,-5.495200245794189531e-01
-6.622672523952414458e+00,2.558829784393310547e-01,-5.499303535836788104e-01
-6.631748965418861275e+00,2.564341723918914795e-01,-5.503550714019838086e-01
-6.640860148363845639e+00,2.569951415061950684e-01,-5.507931598128306128e-01
-6.650014559889186216e+00,2.575696706771850586e-01,-5.512262209448459682e-01
-6.659205418418265410e+00,2.581542134284973145e-01,-5.516727254511524237e-01
-6.668441405843902103e+00,2.587525844573974609e-01,-5.521144670823079359e-01
-6.677719270969837417e+00,2.593628764152526855e-01,-5.525614203594444440e-01
-6.687044463282550311e+00,2.599872350692749023e-01,-5.530035983353507323e-01
-6.696413490081972064e+00,2.606237828731536865e-01,-5.534512714352253226e-01
-6.705827407485899450e+00,2.612726688385009766e-01,-5.539042930862940750e-01
-6.715291330051385899e+00,2.619358599185943604e-01,-5.543539472974075011e-01
-6.724797592349377240e+00,2.626096904277801514e-01,-5.548187836555196206e-01
-6.734360511985973297e+00,2.632999718189239502e-01,-5.552711751714893840e-01
-6.743972172114805375e+00,2.640030086040496826e-01,-5.557300898139077017e-01
-6.753633657088772502e+00,2.647189795970916748e-01,-5.561953905471548332e-01
-6.763345836486652551e+00,2.654480040073394775e-01,-5.566676227466973437e-01
-6.773119025633287826e+00,2.661938965320587158e-01,-5.571290060718268045e-01
-6.782940388072357329e+00,2.669511735439300537e-01,-5.576067870263419213e-01
-6.792820522985167919e+00,2.677237987518310547e-01,-5.580829036711978386e-01
-6.802760549862394868e+00,2.685118913650512695e-01,-5.585578599700913305e-01
-6.812756500367343371e+00,2.693136334419250488e-01,-5.590412623848894924e-01
-6.822815023978434645e+00,2.701312303543090820e-01,-5.595235292973896879e-01
-6.832937041035194170e+00,2.709647119045257568e-01,-5.600054748810840977e-01
-6.843118735795377106e+00,2.718124091625213623e-01,-5.604962538361670799e-01
-6.853366372047235977e+00,2.726763188838958740e-01,-5.609872867024698895e-01
-6.863675916575778579e+00,2.735546827316284180e-01,-5.614879063752586941e-01
-6.874059732063140693e+00,2.744516730308532715e-01,-5.619797658016765229e-01
-6.884508083197331096e+00,2.753634750843048096e-01,-5.624817220199529455e-01
-6.895022071147428377e+00,2.762902677059173584e-01,-5.629941469790609165e-01
-6.905614538592343976e+00,2.772362530231475830e-01,-5.634988557577460533e-01
-6.916276246152051499e+00,2.781978547573089600e-01,-5.640132371688022506e-01
-6.927025003865314723e+00,2.791809439659118652e-01,-5.645118504935286996e-01
-6.937854236108880635e+00,2.801828682422637939e-01,-5.650082029064089628e-01
-6.948762405519318897e+00,2.812028229236602783e-01,-5.655073114716120397e-01
-6.959751833396881082e+00,2.822412550449371338e-01,-5.660084503562257119e-01
-6.970817077157760444e+00,2.832961082458496094e-01,-5.665222379696230881e-01
-6.981972688016907291e+00,2.843718528747558594e-01,-5.670298082325655464e-01
-6.993207022975141740e+00,2.854644358158111572e-01,-5.675510095510645225e-01
-7.004534953747072912e+00,2.865783572196960449e-01,-5.680669582769941606e-01
-7.015952136531560690e+00,2.877118885517120361e-01,-5.685868823969348895e-01
-7.027452864715345804e+00,2.888629734516143799e-01,-5.691214369634534087e-01
-7.039052574715130461e+00,2.900362014770507812e-01,-5.696519290714867623e-01
-7.050746554167996116e+00,2.912297546863555908e-01,-5.701878396944921601e-01
-7.062536346091184747e+00,2.924438416957855225e-01,-5.707298158534632737e-01
-7.074424278687616585e+00,2.936788499355316162e-01,-5.712777631776502218e-01
-7.086412406217256432e+00,2.949351966381072998e-01,-5.718317464170685760e-01
-7.098509621343921161e+00,2.962152063846588135e-01,-5.723833191270564225e-01
-7.110710587521548831e+00,2.975169718265533447e-01,-5.729425064034370241e-01
-7.123017566569345149e+00,2.988409101963043213e-01,-5.735093172787262272e-01
-7.135432289236776526e+00,3.001872301101684570e-01,-5.740845880115603705e-01
-7.147964270865378111e+00,3.015584349632263184e-01,-5.746597050047796973e-01
-7.160608649508619195e+00,3.029527664184570312e-01,-5.752438470537797333e-01
-7.173375677631590897e+00,3.043729066848754883e-01,-5.758278945876478261e-01
-7.186262614555870343e+00,3.058177530765533447e-01,-5.764184714370290674e-01
-7.199279578473696262e+00,3.072898685932159424e-01,-5.770070418074075835e-01
-7.212431175342379319e+00,3.087901771068572998e-01,-5.775918900035099668e-01
-7.225716878865005022e+00,3.103182315826416016e-01,-5.781773679949864242e-01
-7.239129763802562678e+00,3.118717670440673828e-01,-5.787748516464223947e-01
-7.252673850077834494e+00,3.134516477584838867e-01,-5.793830564444906184e-01
-7.266368433908761304e+00,3.150627911090850830e-01,-5.799843415818104475e-01
-7.280198278910782861e+00,3.167007267475128174e-01,-5.805992290952821655e-01
-7.294175070636656599e+00,3.183683454990386963e-01,-5.812184543466387687e-01
-7.308292849862601415e+00,3.200637698173522949e-01,-5.818522095842022512e-01
-7.322565722576706904e+00,3.217903673648834229e-01,-5.824892795610785434e-01
-7.337004953191572199e+00,3.235508501529693604e-01,-5.831220189534691567e-01
-7.351593737962120123e+00,3.253404498100280762e-01,-5.837716786420250603e-01
-7.366345896009134364e+00,3.271624743938446045e-01,-5.844280789179243651e-01
-7.381255999178574001e+00,3.290152251720428467e-01,-5.851005848033672407e-01
-7.396346739428020456e+00,3.309042155742645264e-01,-5.857708151000113883e-01
-7.411610832870193732e+00,3.328272402286529541e-01,-5.864502761817467213e-01
-7.427052160638765166e+00,3.347849845886230469e-01,-5.871393982212456120e-01
-7.442688282437094571e+00,3.367815315723419189e-01,-5.878258676850929287e-01
-7.458498481516063094e+00,3.388113081455230713e-01,-5.885337659953484568e-01
-7.474479090836047668e+00,3.408731818199157715e-01,-5.892704106886355042e-01
-7.490617364466802819e+00,3.429637551307678223e-01,-5.900509995387290818e-01
-7.506973536962236793e+00,3.450976312160491943e-01,-5.908251640789614623e-01
-7.523517644777403035e+00,3.472671210765838623e-01,-5.916244317757575200e-01
-7.540279120900641452e+00,3.494790792465209961e-01,-5.924274136950780090e-01
-7.557263297874885488e+00,3.517344892024993896e-01,-5.932345269569663238e-01
-7.574460187521055765e+00,3.540305197238922119e-01,-5.940595101422754265e-01
-7.591877657263253809e+00,3.563687801361083984e-01,-5.949004909411665931e-01
-7.609544111582700943e+00,3.587557077407836914e-01,-5.957387528410262867e-01
-7.627439689815932233e+00,3.611862063407897949e-01,-5.965964015593046010e-01
-7.645582638597898217e+00,3.636642396450042725e-01,-5.974637462881899896e-01
-7.663990597196587373e+00,3.661935925483703613e-01,-5.983321493268274338e-01
-7.682647733903833931e+00,3.687701821327209473e-01,-5.992201700601362813e-01
-7.701585413995010398e+00,3.714009523391723633e-01,-6.001087079746829644e-01
-8.621795031383967967e+00,5.825052857398986816e-01,9.250783409788931877e-02
-6.943637129862304747e+00,6.661785840988159180e-01,1.885459400246952466e+00
-6.406143524396973987e+00,2.335434257984161377e-01,-5.395345247846139447e-01
-6.414513019767967172e+00,2.338144332170486450e-01,-5.399016424808875669e-01
-6.422900684116534364e+00,2.340937256813049316e-01,-5.402761554909489838e-01
-6.431307053909664617e+00,2.343813180923461914e-01,-5.406582450207084722e-01
-6.439737255803413163e+00,2.346804440021514893e-01,-5.410302655111938197e-01
-6.448187562284818597e+00,2.349879890680313110e-01,-5.414099576405899672e-01
-6.456660810468760836e+00,2.353055179119110107e-01,-5.417889685865211469e-01
-6.465157665229506634e+00,2.356330007314682007e-01,-5.421677745800934645e-01
-6.473676498008321012e+00,2.359690219163894653e-01,-5.425547591871111575e-01
-6.482222875804003692e+00,2.363167107105255127e-01,-5.429329288904918283e-01
-6.490792496487994612e+00,2.366729527711868286e-01,-5.433199561029276037e-01
-6.499388531792384072e+00,2.370393276214599609e-01,-5.437074752017336809e-01
-6.508014454952663286e+00,2.374174892902374268e-01,-5.440868449266085261e-01
-6.516665061197921993e+00,2.378039807081222534e-01,-5.444775718429772926e-01
-6.525344188018217473e+00,2.382007241249084473e-01,-5.448696278136997417e-01
-6.534051668959468095e+00,2.386072278022766113e-01,-5.452659764414085064e-01
-6.542789292385683630e+00,2.390241622924804688e-01,-5.456635728358285586e-01
-6.551557764849131438e+00,2.394515573978424072e-01,-5.460627814797924806e-01
-6.560357874493391250e+00,2.398894578218460083e-01,-5.464637427635121725e-01
-6.569190373960468676e+00,2.403379380702972412e-01,-5.468667109117251179e-01
-6.578056030009921784e+00,2.407970577478408813e-01,-5.472719449177463336e-01
-6.586959051910763918e+00,2.412685751914978027e-01,-5.476704230054529887e-01
-6.595893491437344380e+00,2.417491674423217773e-01,-5.480806456620501699e-01
-6.604866922773175553e+00,2.422422617673873901e-01,-5.484847874367135834e-01
-6.613873350876631640e+00,2.427446097135543823e-01,-5.489008296988311386e-01
-6.622920499514838077e+00,2.432596087455749512e-01,-5.493112491756402260e-01
-6.632002798315711267e+00,2.437843084335327148e-01,-5.497324091142041791e-01
-6.641121286580872862e+00,2.443189322948455811e-01,-5.501636539571581608e-01
-6.650280423750504433e+00,2.448652535676956177e-01,-5.505962980825502839e-01
-6.659475796004482362e+00,2.454210072755813599e-01,-5.510429431314594062e-01
-6.668716168591629412e+00,2.459897845983505249e-01,-5.514851593578955491e-01
-6.677998711299735213e+00,2.465700507164001465e-01,-5.519319310463981498e-01
-6.687328278860450226e+00,2.471635341644287109e-01,-5.523747060951569310e-01
-6.696702032653475634e+00,2.477687597274780273e-01,-5.528222142964147601e-01
-6.706120443955286170e+00,2.483856081962585449e-01,-5.532756214452292376e-01
-6.715589007303643498e+00,2.490160912275314331e-01,-5.537254591161344663e-01
-6.725099962650669561e+00,2.496567070484161377e-01,-5.541903707621969044e-01
-6.734667499039076688e+00,2.503129243850708008e-01,-5.546430634469532439e-01
-6.744283880452048408e+00,2.509813010692596436e-01,-5.551020629144745033e-01
-6.753949934115704323e+00,2.516619265079498291e-01,-5.555679002344979800e-01
-6.763667024035368236e+00,2.523550689220428467e-01,-5.560400295269201099e-01
-6.773445123703785598e+00,2.530641853809356689e-01,-5.565013099449287459e-01
-6.783271229952636538e+00,2.537841200828552246e-01,-5.569794349854191307e-01
-6.793156160941393296e+00,2.545186579227447510e-01,-5.574557875444090538e-01
-6.803100945745952366e+00,2.552678287029266357e-01,-5.579310926978549023e-01
-6.813101909799593514e+00,2.560300827026367188e-01,-5.584145528317161489e-01
-6.823165219573123608e+00,2.568072974681854248e-01,-5.588971781359219904e-01
-6.833292183794859476e+00,2.575996816158294678e-01,-5.593792848419447683e-01
-6.843478815806510518e+00,2.584055662155151367e-01,-5.598703473969273148e-01
-6.853731588460989066e+00,2.592268884181976318e-01,-5.603613536533345041e-01
-6.864046259478643108e+00,2.600619792938232422e-01,-5.608620691937986624e-01
-6.874435030539070901e+00,2.609146833419799805e-01,-5.613543442348403190e-01
-6.884888564632581698e+00,2.617815732955932617e-01,-5.618564153950991180e-01
-6.895407592861056756e+00,2.626626193523406982e-01,-5.623692845802905627e-01
-6.906005271500398557e+00,2.635619342327117920e-01,-5.628741178381109211e-01
-6.916672815943089248e+00,2.644763588905334473e-01,-5.633877026360689655e-01
-6.927427324328603753e+00,2.654111087322235107e-01,-5.638858677061056035e-01
-6.938261880707012885e+00,2.663636207580566406e-01,-5.643823827467331355e-01
-6.949175629873654003e+00,2.673333287239074707e-01,-5.648813628041944312e-01
-6.960170466591375060e+00,2.683205604553222656e-01,-5.653826929280145741e-01
-6.971241081043798360e+00,2.693233788013458252e-01,-5.658967847210376600e-01
-6.982402157213312144e+00,2.703461050987243652e-01,-5.664045652974931677e-01
-6.993642052100733864e+00,2.713848054409027100e-01,-5.669258830633934210e-01
-7.004975693890885147e+00,2.724438309669494629e-01,-5.674418734449184765e-01
-7.016398416777544611e+00,2.735214531421661377e-01,-5.679621589674030968e-01
-7.027904685063502299e+00,2.746157348155975342e-01,-5.684970749364655074e-01
-7.039510323554254434e+00,2.757311463356018066e-01,-5.690274305050233572e-01
-7.051210060582040029e+00,2.768658399581909180e-01,-5.695635243355021693e-01
-7.063005628401745284e+00,2.780200242996215820e-01,-5.701058157166707385e-01
-7.074899175892154446e+00,2.791941165924072266e-01,-5.706542755324321980e-01
-7.086893202172237949e+00,2.803884744644165039e-01,-5.712084896650895249e-01
-7.098996561757197732e+00,2.816054224967956543e-01,-5.717601246103980461e-01
-7.111203615922911503e+00,2.828430235385894775e-01,-5.723193550477936320e-01
-7.123516568512956226e+00,2.841016352176666260e-01,-5.728865479053519838e-01
-7.135937359341457231e+00,2.853815555572509766e-01,-5.734621067543437256e-01
-7.148475465601339174e+00,2.866851091384887695e-01,-5.740375309380267854e-01
-7.161125930727246569e+00,2.880106568336486816e-01,-5.746220931179089053e-01
-7.173899196421916535e+00,2.893607616424560547e-01,-5.752064859908527783e-01
-7.186791064575986709e+00,2.907339632511138916e-01,-5.757988543196033149e-01
-7.199809171959899778e+00,2.921320796012878418e-01,-5.763937247535659836e-01
-7.212965207137250090e+00,2.935579121112823486e-01,-5.769810787147395814e-01
-7.226257583177069677e+00,2.950106263160705566e-01,-5.775665456551510868e-01
-7.239676780478130347e+00,2.964875102043151855e-01,-5.781645257346939015e-01
-7.253227368354548510e+00,2.979894280433654785e-01,-5.787730392286449810e-01
-7.266928699494473953e+00,2.995211482048034668e-01,-5.793744644039298120e-01
-7.280765197186673809e+00,3.010782897472381592e-01,-5.799895858214791922e-01
-7.294748849161964976e+00,3.026636838912963867e-01,-5.806089892594137325e-01
-7.308873261251071618e+00,3.042754232883453369e-01,-5.812432233561972694e-01
-7.323153334541268933e+00,3.059169352054595947e-01,-5.818802089956214285e-01
-7.337599178192278693e+00,3.075904846191406250e-01,-5.825136722023747105e-01
-7.352195238330724081e+00,3.092918694019317627e-01,-5.831633986425099891e-01
-7.366954690067232470e+00,3.110240399837493896e-01,-5.838199976847122663e-01
-7.381871651980670634e+00,3.127853274345397949e-01,-5.844930587265999566e-01
-7.396969704241207921e+00,3.145811557769775391e-01,-5.851636198042720061e-01
-7.412241298932114475e+00,3.164093494415283203e-01,-5.858432239348110304e-01
-7.427690146271015870e+00,3.182705342769622803e-01,-5.865326210378385419e-01
-7.443333749491062967e+00,3.201685845851898193e-01,-5.872194785056323862e-01
-7.459151732169811311e+00,3.220982849597930908e-01,-5.879276152362229446e-01
-7.475140219708396927e+00,3.240584731101989746e-01,-5.886644044837332501e-01
-7.491286257111916314e+00,3.260459303855895996e-01,-5.894454767093046943e-01
-7.507650610004013458e+00,3.280746042728424072e-01,-5.902196362201481694e-01
-7.524202745621392019e+00,3.301370739936828613e-01,-5.910193506492291693e-01
-7.540972382314278022e+00,3.322399556636810303e-01,-5.918225724943042554e-01
-7.557964359704477886e+00,3.343839943408966064e-01,-5.926304331611196297e-01
-7.575169692271340516e+00,3.365668058395385742e-01,-5.934557516437142244e-01
-7.592595832320487403e+00,3.387898206710815430e-01,-5.942967670672485436e-01
-7.610270615114789194e+00,3.410589396953582764e-01,-5.951357030856485597e-01
-7.628174219644813903e+00,3.433694243431091309e-01,-5.959941755060795820e-01
-7.646321109298065188e+00,3.457241356372833252e-01,-5.968658711953411800e-01
