-1.0900834798812866,-0.4054926931858063,-1.2176541090011597
-1.0846166610717773,-0.4062512218952179,-1.2266100645065308
-1.0791417360305786,-0.40703263878822327,-1.2356141805648804
-1.0736291408538818,-0.4078262746334076,-1.2446345090866089
-1.0681040287017822,-0.4086419939994812,-1.2537013292312622
-1.0625455379486084,-0.40947213768959045,-1.262791633605957
-1.056971788406372,-0.4103240668773651,-1.271928310394287
-1.0513839721679688,-0.41119879484176636,-1.281115174293518
-1.0457545518875122,-0.4120858907699585,-1.290319800376892
-1.0401029586791992,-0.41299334168434143,-1.2995675802230835
-1.0344305038452148,-0.41392210125923157,-1.3088618516921997
-1.0287258625030518,-0.4148681163787842,-1.318190336227417
-1.0229976177215576,-0.41583532094955444,-1.3275654315948486
-1.0172358751296997,-0.41682010889053345,-1.3369762897491455
-1.0114578008651733,-0.4178299605846405,-1.3464469909667969
-1.005648136138916,-0.4188591241836548,-1.3559595346450806
-0.9997953772544861,-0.41990330815315247,-1.3655000925064087
-0.993928849697113,-0.4209752678871155,-1.3751105070114136
-0.9880128502845764,-0.42206040024757385,-1.3847434520721436
-0.9820801615715027,-0.423173189163208,-1.394446611404419
-0.9761115312576294,-0.4243060052394867,-1.4041953086853027
-0.9701036214828491,-0.4254578948020935,-1.413986325263977
-0.9640761613845825,-0.42663806676864624,-1.4238508939743042
-0.9580023288726807,-0.4278353452682495,-1.4337518215179443
-0.9518909454345703,-0.4290541112422943,-1.4437040090560913
-0.9457600712776184,-0.4303032457828522,-1.4537376165390015
-0.939575731754303,-0.4315679669380188,-1.4638030529022217
-0.9333611130714417,-0.4328594505786896,-1.473938226699829
-0.9271137118339539,-0.43417733907699585,-1.4841424226760864
-0.9208157658576965,-0.4355139136314392,-1.4943894147872925
-0.9144891500473022,-0.43688029050827026,-1.5047173500061035
-0.9081192016601562,-0.43827024102211,-1.5151053667068481
-0.9016938805580139,-0.4396786093711853,-1.5255354642868042
-0.8952377438545227,-0.441118061542511,-1.536051869392395
-0.8887483477592468,-0.4425883889198303,-1.546654224395752
-0.8821982741355896,-0.4440767467021942,-1.557297706604004
-0.9183448553085327,-0.4673427641391754,-1.6445534229278564
-1.9365618228912354,-0.49984487891197205,0.13090738654136658
-1.9287937879562378,-0.4976428151130676,0.1184980496764183
-1.9210877418518066,-0.49547716975212097,0.1061967983841896
-1.9134732484817505,-0.4933552145957947,0.09400290995836258
-1.9058895111083984,-0.4912610352039337,0.0819111168384552
-1.8983945846557617,-0.48920938372612,0.06992201507091522
-1.890958547592163,-0.48719221353530884,0.058032091706991196
-1.8835515975952148,-0.4852015972137451,0.046238597482442856
-1.8762314319610596,-0.48325225710868835,0.034541137516498566
-1.8689674139022827,-0.48133596777915955,0.022936832159757614
-1.861759901046753,-0.4794526696205139,0.011423759162425995
-1.8546077013015747,-0.4776017963886261,3.4067466615220947e-16
-1.8475100994110107,-0.47578296065330505,-0.011336322873830795
-1.8404673337936401,-0.47399601340293884,-0.022587064653635025
-1.8334773778915405,-0.47224029898643494,-0.03375404328107834
-1.8265411853790283,-0.47051575779914856,-0.04483906924724579
-1.8196293115615845,-0.4688147306442261,-0.0558430515229702
-1.81279718875885,-0.4671512544155121,-0.06676927953958511
-1.806015968322754,-0.46551769971847534,-0.07761876285076141
-1.799258828163147,-0.46390706300735474,-0.08839192241430283
-1.7925525903701782,-0.4623260498046875,-0.09909143298864365
-1.7858960628509521,-0.46077418327331543,-0.1097189411520958
-1.7792887687683105,-0.4592512249946594,-0.1202760711312294
-1.7727043628692627,-0.45775020122528076,-0.13076253235340118
-1.7661941051483154,-0.45628422498703003,-0.14118357002735138
-1.7597061395645142,-0.4548397660255432,-0.15153683722019196
-1.7532662153244019,-0.45342332124710083,-0.16182582080364227
-1.746848464012146,-0.4520280957221985,-0.17204955220222473
-1.7404780387878418,-0.45066046714782715,-0.18221181631088257
-1.734152913093567,-0.4493198096752167,-0.19231393933296204
-1.7278504371643066,-0.44800010323524475,-0.2023547887802124
-1.7216169834136963,-0.44671326875686646,-0.21234118938446045
-1.715381145477295,-0.44544076919555664,-0.22226588428020477
-1.7091903686523438,-0.4441946744918823,-0.23213587701320648
-1.703044056892395,-0.44297483563423157,-0.24195261299610138
-1.6969423294067383,-0.4417811334133148,-0.25171759724617004
-1.6908372640609741,-0.44060108065605164,-0.2614249289035797
-1.6847994327545166,-0.4394529163837433,-0.27108651399612427
-1.6787813901901245,-0.4383241832256317,-0.2806963324546814
-1.672783613204956,-0.4372149705886841,-0.29025548696517944
-1.6668287515640259,-0.4361311197280884,-0.2997690439224243
-1.6608937978744507,-0.43506649136543274,-0.3092341721057892
-1.6549787521362305,-0.4340210556983948,-0.31865185499191284
-1.6491059064865112,-0.4330006241798401,-0.3280275762081146
-1.6432521343231201,-0.43199896812438965,-0.33735790848731995
-1.6374402046203613,-0.43102213740348816,-0.3466487526893616
-1.631626009941101,-0.43005841970443726,-0.3558918535709381
-1.625853180885315,-0.4291192293167114,-0.3650975525379181
-1.620120644569397,-0.4282042682170868,-0.37426701188087463
-1.6143858432769775,-0.4273022711277008,-0.38339152932167053
-1.608691692352295,-0.4264245331287384,-0.39248213171958923
-1.6030164957046509,-0.425565242767334,-0.40153470635414124
-1.597360372543335,-0.4247244596481323,-0.41055038571357727
-1.5917235612869263,-0.42390215396881104,-0.4195300340652466
-1.586107850074768,-0.4230988323688507,-0.4284752309322357
-1.5805319547653198,-0.4223194122314453,-0.43739211559295654
-1.5749551057815552,-0.42155301570892334,-0.44627049565315247
-1.5694166421890259,-0.42081013321876526,-0.4551223814487457
-1.5638775825500488,-0.420080304145813,-0.46393758058547974
-1.558357834815979,-0.4193688929080963,-0.4727226793766022
-1.552876353263855,-0.41868093609809875,-0.4814845323562622
-1.547394037246704,-0.41800594329833984,-0.4902121424674988
-1.5419312715530396,-0.41734936833381653,-0.49891266226768494
-1.5364869832992554,-0.4167109429836273,-0.5075867176055908
-1.5310627222061157,-0.41609108448028564,-0.5162358283996582
-1.5256602764129639,-0.4154902994632721,-0.5248616337776184
-1.520257592201233,-0.41490259766578674,-0.533457338809967
-1.5148743391036987,-0.414333313703537,-0.5420306921005249
-1.5095103979110718,-0.4137824475765228,-0.5505826473236084
-1.5041652917861938,-0.4132498800754547,-0.5591139197349548
-1.4988206624984741,-0.4127306342124939,-0.5676186680793762
-1.4934958219528198,-0.4122300148010254,-0.5761048793792725
-1.4881750345230103,-0.4117436707019806,-0.5845674872398376
-1.482874870300293,-0.41127628087997437,-0.5930138230323792
-1.4775941371917725,-0.41082748770713806,-0.6014444231987
-1.4723150730133057,-0.4103924036026001,-0.6098528504371643
-1.4670376777648926,-0.40997108817100525,-0.6182399988174438
-1.4617798328399658,-0.4095684885978699,-0.626613974571228
-1.456545352935791,-0.40918585658073425,-0.6349776983261108
-1.4512977600097656,-0.40881288051605225,-0.6433160305023193
-1.446069598197937,-0.40845879912376404,-0.6516440510749817
-1.4408437013626099,-0.4081188142299652,-0.6599549055099487
-1.4356385469436646,-0.40779823064804077,-0.668258011341095
-1.43044114112854,-0.4074934422969818,-0.6765483021736145
-1.4252313375473022,-0.4071986675262451,-0.684816837310791
-1.4200414419174194,-0.4069232642650604,-0.693079948425293
-1.4148555994033813,-0.4066627025604248,-0.7013307809829712
-1.4096949100494385,-0.4064231812953949,-0.7095807790756226
-1.4045231342315674,-0.4061943292617798,-0.717812716960907
-1.3993562459945679,-0.40598082542419434,-0.7260353565216064
-1.3941940069198608,-0.4057825803756714,-0.7342492938041687
-1.3890269994735718,-0.4055970311164856,-0.7424503564834595
-1.3838814496994019,-0.4054318368434906,-0.7506535053253174
-1.3787254095077515,-0.4052777886390686,-0.7588422298431396
-1.3735947608947754,-0.4051454961299896,-0.7670372128486633
-1.3684420585632324,-0.405021071434021,-0.775212824344635
-1.36331045627594,-0.4049173593521118,-0.7833941578865051
-1.3581738471984863,-0.40482670068740845,-0.791567325592041
-1.3530324697494507,-0.4047493040561676,-0.79973304271698
-1.3478977680206299,-0.40468859672546387,-0.8078988194465637
-1.3427752256393433,-0.4046463966369629,-0.8160691261291504
-1.3376331329345703,-0.4046132564544678,-0.8242253065109253
-1.3324990272521973,-0.40459761023521423,-0.8323851823806763
-1.3273802995681763,-0.4046018123626709,-0.8405542969703674
-1.3222402334213257,-0.40461480617523193,-0.8487103581428528
-1.3171137571334839,-0.4046473801136017,-0.8568764925003052
-1.311970591545105,-0.40469035506248474,-0.8650338649749756
-1.3068393468856812,-0.404752641916275,-0.8732021450996399
-1.301708459854126,-0.4048309028148651,-0.8813746571540833
-1.2965606451034546,-0.40491983294487,-0.8895405530929565
-1.2914167642593384,-0.40502601861953735,-0.8977146744728088
-1.2862697839736938,-0.4051474928855896,-0.9058933854103088
-1.2811278104782104,-0.40528690814971924,-0.9140832424163818
-1.2759701013565063,-0.4054378569126129,-0.9222701787948608
-1.2708182334899902,-0.4056074023246765,-0.9304710030555725
-1.2656534910202026,-0.40578964352607727,-0.9386726021766663
-1.2604801654815674,-0.40598613023757935,-0.9468791484832764
-1.2553106546401978,-0.4062010645866394,-0.9551008343696594
-1.250131368637085,-0.406430184841156,-0.9633283615112305
-1.2449473142623901,-0.40667524933815,-0.971566379070282
-1.2397536039352417,-0.4069349467754364,-0.9798122048377991
-1.2345553636550903,-0.4072110652923584,-0.9880707859992981
-1.2293517589569092,-0.40750354528427124,-0.9963423609733582
-1.224129319190979,-0.4078080952167511,-1.0046169757843018
-1.218904972076416,-0.4081304967403412,-1.0129094123840332
-1.2136776447296143,-0.40847066044807434,-1.0212197303771973
-1.2084342241287231,-0.4088243842124939,-1.0295382738113403
-1.2031773328781128,-0.40919268131256104,-1.0378679037094116
-1.1979217529296875,-0.40958085656166077,-1.046222448348999
-1.1926534175872803,-0.4099843204021454,-1.0545908212661743
-1.1873735189437866,-0.4104037284851074,-1.062975287437439
-1.1820720434188843,-0.41083580255508423,-1.071367621421814
-1.1767725944519043,-0.4112889766693115,-1.0797902345657349
-1.1714555025100708,-0.41175663471221924,-1.0882264375686646
-1.1661200523376465,-0.4122387766838074,-1.0966765880584717
-1.160778522491455,-0.41273996233940125,-1.1051530838012695
-1.1554203033447266,-0.4132566750049591,-1.1136471033096313
-1.1500470638275146,-0.4137898087501526,-1.1221615076065063
-1.144660234451294,-0.4143401086330414,-1.1306986808776855
-1.1393250226974487,-0.41493162512779236,-1.1393250226974487
-1.1340327262878418,-0.41556188464164734,-1.1480355262756348
-1.1287240982055664,-0.41620972752571106,-1.1567727327346802
-1.1233960390090942,-0.41687434911727905,-1.1655348539352417
-1.1180455684661865,-0.4175548851490021,-1.1743199825286865
-1.1126699447631836,-0.4182506799697876,-1.1831262111663818
-1.107283115386963,-0.41896718740463257,-1.191969633102417
-1.1018869876861572,-0.4197055399417877,-1.200853943824768
-1.096457839012146,-0.42045706510543823,-1.2097547054290771
-1.0910090208053589,-0.42122724652290344,-1.218687891960144
-1.0855375528335571,-0.42201516032218933,-1.2276513576507568
-1.080057978630066,-0.42282697558403015,-1.2366633415222168
-1.0745407342910767,-0.42365139722824097,-1.2456912994384766
-1.0690110921859741,-0.4244988262653351,-1.2547659873962402
-1.0634478330612183,-0.42536118626594543,-1.2638639211654663
-1.0578693151474,-0.42624616622924805,-1.2730084657669067
-1.0522769689559937,-0.42715489864349365,-1.282203197479248
-1.0466431379318237,-0.42807653546333313,-1.2914161682128906
-1.0409866571426392,-0.42901918292045593,-1.3006716966629028
-1.0353095531463623,-0.42998406291007996,-1.309974193572998
-1.0296002626419067,-0.43096688389778137,-1.3193107843399048
-1.023867130279541,-0.43197163939476013,-1.3286939859390259
-1.018100619316101,-0.43299466371536255,-1.3381128311157227
-1.0123178958892822,-0.4340437948703766,-1.3475918769836426
-1.0065033435821533,-0.43511295318603516,-1.3571126461029053
-1.0006457567214966,-0.4361976981163025,-1.366661548614502
-0.9947739839553833,-0.4373111426830292,-1.3762798309326172
-0.9888530373573303,-0.43843841552734375,-1.3859210014343262
-0.9829152822494507,-0.4395943880081177,-1.3956325054168701
-0.9769415259361267,-0.4407711327075958,-1.4053893089294434
-0.9709288477897644,-0.4419678747653961,-1.4151891469955444
-0.964896023273468,-0.4431937336921692,-1.425061821937561
-0.9588174819946289,-0.4444376528263092,-1.4349716901779175
-0.9527009129524231,-0.44570377469062805,-1.444932460784912
-0.9465650916099548,-0.44700148701667786,-1.4549750089645386
-0.9403756856918335,-0.4483153820037842,-1.4650492668151855
-0.9341561794281006,-0.4496572017669678,-1.4751938581466675
-0.9279042482376099,-0.4510265588760376,-1.485407829284668
-0.9216013550758362,-0.4524152874946594,-1.495664358139038
-0.915269672870636,-0.4538348317146301,-1.5060017108917236
-0.9088943600654602,-0.45527875423431396,-1.5163986682891846
-0.9024638533592224,-0.45674192905426025,-1.5268381834030151
-0.8960021138191223,-0.4582372009754181,-1.5373634099960327
-0.8895073533058167,-0.459764689207077,-1.5479750633239746
-0.8829523324966431,-0.46131113171577454,-1.558628797531128
-0.9110997319221497,-0.4812386631965637,-1.631579041481018
-1.8676347732543945,-0.49864691495895386,0.022920478135347366
-1.8604315519332886,-0.4966956377029419,0.01141560822725296
-1.853284239768982,-0.4947781562805176,3.404315412265679e-16
-1.8461923599243164,-0.49289408326148987,-0.011328236199915409
-1.839153528213501,-0.4910426139831543,-0.02257094345986843
-1.832168698310852,-0.4892237186431885,-0.03372994810342789
-1.8252369165420532,-0.48743706941604614,-0.04480705037713051
-1.8183306455612183,-0.48567500710487366,-0.055803194642066956
-1.811502456665039,-0.4839514493942261,-0.0667215883731842
-1.8047258853912354,-0.4822591245174408,-0.0775633156299591
-1.7979737520217896,-0.4805905818939209,-0.0883287861943245
-1.7912724018096924,-0.4789527356624603,-0.09902066737413406
-1.7846200466156006,-0.47734490036964417,-0.10964054614305496
-1.7780178785324097,-0.4757673144340515,-0.12019016593694687
-1.771437644958496,-0.4742121696472168,-0.13066908717155457
-1.7649321556091309,-0.47269347310066223,-0.14108268916606903
-1.7584487199783325,-0.4711970388889313,-0.15142855048179626
-1.7520133256912231,-0.4697296619415283,-0.16171017289161682
-1.7455998659133911,-0.46828415989875793,-0.1719265729188919
-1.7392337322235107,-0.4668672978878021,-0.18208155035972595
-1.7329132556915283,-0.46547842025756836,-0.1921764612197876
-1.7266149520874023,-0.46411117911338806,-0.20221009850502014
-1.7203855514526367,-0.4627780020236969,-0.21218931674957275
-1.7141542434692383,-0.4614596962928772,-0.2221069037914276
-1.7079676389694214,-0.4601687490940094,-0.23196980357170105
-1.7018262147903442,-0.4589051604270935,-0.24177959561347961
-1.6957279443740845,-0.45766833424568176,-0.2515374720096588
-1.6896271705627441,-0.4564458131790161,-0.26123785972595215
-1.683593511581421,-0.45525628328323364,-0.27089250087738037
-1.6775799989700317,-0.4540870487689972,-0.28049546480178833
-1.6715866327285767,-0.4529379904270172,-0.2900477945804596
-1.6656357049942017,-0.45181503891944885,-0.2995544970035553
-1.6597049236297607,-0.450712114572525,-0.30901283025741577
-1.6537936925888062,-0.4496289789676666,-0.31842368841171265
-1.6479250192642212,-0.4485718011856079,-0.3277926743030548
-1.642075777053833,-0.4475342631340027,-0.33711642026901245
-1.6362674236297607,-0.4465221166610718,-0.3464004695415497
-1.6304574012756348,-0.445523738861084,-0.35563692450523376
-1.6246888637542725,-0.4445508122444153,-0.36483606696128845
-1.6189601421356201,-0.44360288977622986,-0.3739989399909973
-1.6132292747497559,-0.4426684081554413,-0.38311687111854553
-1.607539415359497,-0.4417591392993927,-0.3922009766101837
-1.6018683910369873,-0.4408690333366394,-0.40124714374542236
-1.5962164402008057,-0.4399980306625366,-0.41025635600090027
-1.590583324432373,-0.4391460716724396,-0.41922950744628906
-1.5849717855453491,-0.43831387162208557,-0.42816832661628723
-1.5793997049331665,-0.43750637769699097,-0.4370787441730499
-1.5738264322280884,-0.4367123246192932,-0.4459506869316101
-1.568292260169983,-0.4359428286552429,-0.45479634404182434
-1.562756896018982,-0.4351866841316223,-0.4636051058769226
-1.5572407245635986,-0.43444955348968506,-0.4723838269710541
-1.5517632961273193,-0.4337368905544281,-0.4811394214630127
-1.546284794807434,-0.4330376088619232,-0.48986074328422546
-1.5408260822296143,-0.43235746026039124,-0.498555064201355
-1.5353854894638062,-0.4316960275173187,-0.5072228312492371
-1.5299649238586426,-0.4310538172721863,-0.515865683555603
-1.5245661735534668,-0.4304313659667969,-0.5244852304458618
-1.5191675424575806,-0.4298225939273834,-0.5330748558044434
-1.513788104057312,-0.42923280596733093,-0.5416420698165894
-1.5084280967712402,-0.42866215109825134,-0.5501878261566162
-1.503086805343628,-0.4281104505062103,-0.5587130188941956
-1.4977459907531738,-0.4275725483894348,-0.5672116875648499
-1.4924248456954956,-0.42705386877059937,-0.575691819190979
-1.4871076345443726,-0.4265500009059906,-0.5841482877731323
-1.4818111658096313,-0.42606571316719055,-0.5925884246826172
-1.476534366607666,-0.4256008267402649,-0.6010130047798157
-1.4712588787078857,-0.4251500368118286,-0.6094153523445129
-1.4659854173660278,-0.4247136116027832,-0.6177965402603149
-1.4607309103012085,-0.42429643869400024,-0.6261643767356873
-1.4555010795593262,-0.4239002764225006,-0.6345224380493164
-1.4502568244934082,-0.4235137701034546,-0.642854630947113
-1.445032000541687,-0.4231468737125397,-0.6511765122413635
-1.4398101568222046,-0.42279472947120667,-0.6594815254211426
-1.4346083402633667,-0.42246249318122864,-0.667778491973877
-1.4294147491455078,-0.422146737575531,-0.676062822341919
-1.4242087602615356,-0.42184141278266907,-0.6843255162239075
-1.4190224409103394,-0.4215560853481293,-0.6925826072692871
-1.4138402938842773,-0.42128613591194153,-0.7008274793624878
-1.4086830615997314,-0.4210379719734192,-0.7090715169906616
-1.403515338897705,-0.42080098390579224,-0.7172976732254028
-1.3983521461486816,-0.420579731464386,-0.7255143523216248
-1.3931933641433716,-0.42037433385849,-0.7337223291397095
-1.3880305290222168,-0.4201822280883789,-0.7419177889823914
-1.3828884363174438,-0.420011043548584,-0.7501148581504822
-1.37773597240448,-0.4198514223098755,-0.7582977414131165
-1.37260901927948,-0.41971439123153687,-0.7664867639541626
-1.3674601316452026,-0.4195854961872101,-0.7746565937995911
-1.3623323440551758,-0.41947808861732483,-0.782832145690918
-1.3571991920471191,-0.41938409209251404,-0.7909992337226868
-1.35206139087677,-0.419303834438324,-0.7991589903831482
-1.3469306230545044,-0.4192410707473755,-0.807319164276123
-1.3418116569519043,-0.41919732093811035,-0.8154835104942322
-1.336673378944397,-0.4191630482673645,-0.8236339688301086
-1.3315424919128418,-0.41914665699005127,-0.831787645816803
-1.3264273405075073,-0.4191510081291199,-0.8399508595466614
-1.321291208267212,-0.4191645383834839,-0.8481011986732483
-1.3161684274673462,-0.41919824481010437,-0.8562614321708679
-1.3110291957855225,-0.41924288868904114,-0.8644132018089294
-1.3059014081954956,-0.4193073511123657,-0.8725754022598267
-1.300774335861206,-0.41938847303390503,-0.8807421922683716
-1.2956302165985107,-0.419480562210083,-0.8889021873474121
-1.2904900312423706,-0.4195905923843384,-0.8970704674720764
-1.2853466272354126,-0.41971638798713684,-0.9052432179450989
-1.2802083492279053,-0.4198608100414276,-0.9134271144866943
-1.2750545740127563,-0.420017272233963,-0.9216085076332092
-1.2699064016342163,-0.4201928973197937,-0.9298033118247986
-1.2647454738616943,-0.4203817546367645,-0.9379991888999939
-1.2595759630203247,-0.4205853343009949,-0.946199893951416
-1.2544101476669312,-0.42080795764923096,-0.9544156193733215
-1.2492350339889526,-0.4210454523563385,-0.9626375436782837
-1.2440546751022339,-0.42129939794540405,-0.970869779586792
-1.2388646602630615,-0.4215683937072754,-0.9791097044944763
-1.2336697578430176,-0.4218543469905853,-0.9873620271682739
-1.2284700870513916,-0.4221573770046234,-0.995627760887146
-1.2232517004013062,-0.4224729835987091,-1.003896713256836
-1.2180308103561401,-0.42280688881874084,-1.0121829509735107
-1.2128071784973145,-0.42315924167633057,-1.0204873085021973
-1.2075679302215576,-0.4235258102416992,-1.028800129890442
-1.2023146152496338,-0.4239073097705841,-1.037123680114746
-1.1970628499984741,-0.42430946230888367,-1.0454723834991455
-1.1917983293533325,-0.4247274696826935,-1.0538347959518433
-1.1865222454071045,-0.4251619577407837,-1.0622131824493408
-1.1812247037887573,-0.42560961842536926,-1.0705996751785278
-1.175929069519043,-0.4260790944099426,-1.0790163278579712
-1.1706160306930542,-0.42656365036964417,-1.0874465703964233
-1.1652841567993164,-0.4270630478858948,-1.0958905220031738
-1.1599464416503906,-0.4275822639465332,-1.104360818862915
-1.1545920372009277,-0.428117573261261,-1.1128488779067993
-1.1492228507995605,-0.42866992950439453,-1.1213573217391968
-1.1438398361206055,-0.42923998832702637,-1.1298881769180298
-1.138508677482605,-0.42985284328460693,-1.138508677482605
-1.1332200765609741,-0.4305057227611542,-1.1472127437591553
-1.1279152631759644,-0.43117690086364746,-1.1559438705444336
-1.122591257095337,-0.43186551332473755,-1.164699912071228
-1.1172441244125366,-0.43257036805152893,-1.1734782457351685
-1.1118724346160889,-0.43329116702079773,-1.1822782754898071
-1.1064894199371338,-0.43403342366218567,-1.1911152601242065
-1.1010973453521729,-0.4347984194755554,-1.199993371963501
-1.0956717729568481,-0.4355768859386444,-1.2088875770568848
-1.0902270078659058,-0.4363747835159302,-1.2178144454956055
-1.0847595930099487,-0.43719109892845154,-1.2267717123031616
-1.0792841911315918,-0.4380321502685547,-1.2357772588729858
-1.0737706422805786,-0.4388861656188965,-1.2447985410690308
-1.0682450532913208,-0.4397640526294708,-1.2538667917251587
-1.0626860857009888,-0.44065752625465393,-1.2629585266113281
-1.0571117401123047,-0.44157442450523376,-1.2720967531204224
-1.0515233278274536,-0.44251585006713867,-1.2812849283218384
-1.0458934307098389,-0.4434705972671509,-1.2904911041259766
-1.0402412414550781,-0.44444718956947327,-1.2997403144836426
-1.034568190574646,-0.44544678926467896,-1.309036135673523
-1.0288628339767456,-0.4464648962020874,-1.3183659315109253
-1.0231339931488037,-0.44750580191612244,-1.3277424573898315
-1.017371654510498,-0.44856569170951843,-1.337154746055603
-1.011592984199524,-0.4496525228023529,-1.346626877784729
-1.0057826042175293,-0.4507601261138916,-1.3561407327651978
-0.9999293088912964,-0.4518839418888092,-1.3656830787658691
-0.9940620064735413,-0.4530375301837921,-1.3752946853637695
-0.9881449341773987,-0.454205185174942,-1.384928584098816
-0.9822114706039429,-0.45540276169776917,-1.394633173942566
-0.9762422442436218,-0.456621915102005,-1.4043833017349243
-0.9702339768409729,-0.4578617215156555,-1.414176344871521
-0.9642055630683899,-0.45913174748420715,-1.4240421056747437
-0.9581314325332642,-0.4604204297065735,-1.4339449405670166
-0.952019214630127,-0.46173205971717834,-1.4438985586166382
-0.9458879232406616,-0.46307650208473206,-1.4539341926574707
-0.9397029876708984,-0.46443766355514526,-1.4640012979507446
-0.9334879517555237,-0.46582773327827454,-1.4741384983062744
-0.9272409081459045,-0.46724656224250793,-1.4843459129333496
-0.9209427833557129,-0.4686853289604187,-1.4945955276489258
-0.9146158695220947,-0.47015607357025146,-1.5049259662628174
-0.908245325088501,-0.4716520309448242,-1.5153157711029053
-0.9018194675445557,-0.47316786646842957,-1.5257480144500732
-0.8953623175621033,-0.4747169315814972,-1.5362657308578491
-0.8888722062110901,-0.47629931569099426,-1.5468697547912598
-0.8823216557502747,-0.47790127992630005,-1.5575155019760132
-0.9064151644706726,-0.4963366389274597,-1.6231900453567505
-1.8063745498657227,-0.49987009167671204,-0.07763417065143585
-1.7996420860290527,-0.49814778566360474,-0.08841074258089066
-1.7929333448410034,-0.4964497983455658,-0.09911248087882996
-1.7862751483917236,-0.49478331208229065,-0.10974222421646118
-1.7796659469604492,-0.4931477904319763,-0.12030155956745148
-1.7730801105499268,-0.4915359914302826,-0.13079024851322174
-1.7665681838989258,-0.48996174335479736,-0.14121347665786743
-1.7600784301757812,-0.4884105324745178,-0.15156888961791992
-1.7536365985870361,-0.48688942193984985,-0.16186000406742096
-1.7472174167633057,-0.48539116978645325,-0.17208589613437653
-1.7408443689346313,-0.4839222729206085,-0.18225017189979553
-1.7345185279846191,-0.48248282074928284,-0.1923544853925705
-1.7282134294509888,-0.4810653626918793,-0.20239730179309845
-1.721978783607483,-0.4796835780143738,-0.21238581836223602
-1.7157410383224487,-0.4783169627189636,-0.22231251001358032
-1.709549069404602,-0.47697895765304565,-0.23218458890914917
-1.7034008502960205,-0.47566890716552734,-0.24200332164764404
-1.6972966194152832,-0.4743868112564087,-0.25177016854286194
-1.6911903619766235,-0.4731196463108063,-0.26147952675819397
-1.6851508617401123,-0.47188660502433777,-0.2711430788040161
-1.6791316270828247,-0.470674604177475,-0.2807548940181732
-1.673132300376892,-0.4694834351539612,-0.29031598567962646
-1.6671754121780396,-0.4683193564414978,-0.2998313903808594
-1.6612391471862793,-0.4671761691570282,-0.30929848551750183
-1.6553224325180054,-0.46605345606803894,-0.3187180459499359
-1.6494479179382324,-0.4649575650691986,-0.32809558510780334
-1.6435930728912354,-0.46388205885887146,-0.33742791414260864
-1.6377795934677124,-0.4628330171108246,-0.3467206060886383
-1.6319637298583984,-0.4617980122566223,-0.3559654951095581
-1.6261893510818481,-0.46078941226005554,-0.3651730418205261
-1.6204553842544556,-0.4598068594932556,-0.3743443489074707
-1.6147195100784302,-0.4588383138179779,-0.3834707736968994
-1.6090240478515625,-0.45789575576782227,-0.39256319403648376
-1.6033475399017334,-0.45697304606437683,-0.4016176462173462
-1.597690224647522,-0.4560701847076416,-0.4106351435184479
-1.5920518636703491,-0.4551870822906494,-0.41961655020713806
-1.586435079574585,-0.45432448387145996,-0.42856359481811523
-1.5808579921722412,-0.4534875154495239,-0.4374823272228241
-1.5752792358398438,-0.4526643753051758,-0.44636234641075134
-1.569739818572998,-0.4518667161464691,-0.45521610975265503
-1.5641992092132568,-0.45108291506767273,-0.46403297781944275
-1.5586776733398438,-0.4503187835216522,-0.4728196859359741
-1.5531951189041138,-0.4495801031589508,-0.4815833866596222
-1.547711968421936,-0.44885537028312683,-0.4903128445148468
-1.5422475337982178,-0.4481501877307892,-0.4990150034427643
-1.536802053451538,-0.44746464490890503,-0.5076908469200134
-1.5313762426376343,-0.4467989206314087,-0.5163415670394897
-1.5259727239608765,-0.44615375995635986,-0.5249691009521484
-1.5205687284469604,-0.44552263617515564,-0.5335665345191956
-1.5151842832565308,-0.44491130113601685,-0.5421416163444519
-1.5098190307617188,-0.4443197250366211,-0.5506951808929443
-1.5044728517532349,-0.443747878074646,-0.559228241443634
-1.4991270303726196,-0.4431902766227722,-0.5677346587181091
-1.4938009977340698,-0.4426526725292206,-0.5762225985527039
-1.4884790182113647,-0.4421304166316986,-0.5846869349479675
-1.4831774234771729,-0.4416283965110779,-0.5931348204612732
-1.4778954982757568,-0.4411464333534241,-0.6015670299530029
-1.472615122795105,-0.4406791925430298,-0.6099771857261658
-1.4673364162445068,-0.440226674079895,-0.6183658838272095
-1.4620773792266846,-0.4397943913936615,-0.6267415285110474
-1.456842303276062,-0.4393835961818695,-0.635107159614563
-1.4515931606292725,-0.4389829933643341,-0.6434470415115356
-1.4463635683059692,-0.4386026859283447,-0.6517764925956726
-1.4411369562149048,-0.4382376968860626,-0.6600892543792725
-1.4359303712844849,-0.4378933608531952,-0.6683938503265381
-1.430732011795044,-0.4375660717487335,-0.6766858696937561
-1.4255210161209106,-0.4372495412826538,-0.6849560737609863
-1.4203299283981323,-0.43695375323295593,-0.6932207345962524
-1.4151428937911987,-0.43667396903038025,-0.7014732360839844
-1.4099808931350708,-0.4364166855812073,-0.7097247838973999
-1.4048082828521729,-0.4361709654331207,-0.7179584503173828
-1.3996400833129883,-0.435941606760025,-0.7261825799942017
-1.3944770097732544,-0.4357288181781769,-0.7343983054161072
-1.389309048652649,-0.4355296194553375,-0.7426011562347412
-1.3841620683670044,-0.4353521168231964,-0.750805675983429
-1.3790051937103271,-0.4351867735385895,-0.7589962482452393
-1.373872995376587,-0.4350445568561554,-0.7671926021575928
-1.3687191009521484,-0.4349108934402466,-0.7753698229789734
-1.3635867834091187,-0.4347996413707733,-0.7835530042648315
-1.358449101448059,-0.4347022771835327,-0.7917277216911316
-1.3533066511154175,-0.43461909890174866,-0.7998950481414795
-1.3481707572937012,-0.4345538914203644,-0.8080624341964722
-1.3430472612380981,-0.43450862169265747,-0.8162344098091125
-1.3379039764404297,-0.4344730079174042,-0.8243922591209412
-1.3327686786651611,-0.43445613980293274,-0.8325536251068115
-1.3276487588882446,-0.4344605803489685,-0.8407242894172668
-1.3225080966949463,-0.4344746768474579,-0.8488823175430298
-1.3173805475234985,-0.43450966477394104,-0.8570501208305359
-1.3122366666793823,-0.43455591797828674,-0.8652093410491943
-1.3071041107177734,-0.43462273478507996,-0.8733790516853333
-1.301972508430481,-0.4347068667411804,-0.8815534710884094
-1.296823501586914,-0.4348022937774658,-0.8897209167480469
-1.2916786670684814,-0.43491634726524353,-0.8978967666625977
-1.28653085231781,-0.43504685163497925,-0.9060772657394409
-1.2813876867294312,-0.43519648909568787,-0.9142685532569885
-1.2762293815612793,-0.43535876274108887,-0.9224576950073242
-1.2710763216018677,-0.43554073572158813,-0.9306598901748657
-1.2659103870391846,-0.43573638796806335,-0.9388630986213684
-1.260736346244812,-0.4359475076198578,-0.9470715522766113
-1.255565881729126,-0.4361782968044281,-0.9552949666976929
-1.2503857612609863,-0.4364244043827057,-0.963524341583252
-1.245200753211975,-0.4366876482963562,-0.9717642068862915
-1.2400062084197998,-0.43696659803390503,-0.9800119400024414
-1.234807014465332,-0.4372631013393402,-0.9882721304893494
-1.229602575302124,-0.4375772476196289,-0.996545672416687
-1.2243794202804565,-0.43790438771247864,-1.0048222541809082
-1.2191537618637085,-0.43825051188468933,-1.0131161212921143
-1.2139257192611694,-0.4386158883571625,-1.0214284658432007
-1.2086814641952515,-0.4389958083629608,-1.0297489166259766
-1.2034235000610352,-0.43939128518104553,-1.0380802154541016
-1.1981667280197144,-0.43980807065963745,-1.0464364290237427
-1.1928973197937012,-0.4402413070201874,-1.0548065900802612
-1.1876164674758911,-0.4406917095184326,-1.0631928443908691
-1.182314157485962,-0.4411557912826538,-1.071587085723877
-1.1770137548446655,-0.4416424036026001,-1.0800114870071411
-1.1716958284378052,-0.4421446919441223,-1.0884497165679932
-1.166359305381775,-0.44266241788864136,-1.096901535987854
-1.1610164642333984,-0.4432005286216736,-1.105379581451416
-1.1556572914123535,-0.44375544786453247,-1.1138756275177002
-1.1502833366394043,-0.44432803988456726,-1.122391939163208
-1.1448955535888672,-0.44491901993751526,-1.13093101978302
-1.1395591497421265,-0.4455541670322418,-1.1395591497421265
-1.1342658996582031,-0.44623100757598877,-1.1482715606689453
-1.1289563179016113,-0.44692671298980713,-1.157010793685913
-1.1236274242401123,-0.44764044880867004,-1.165774941444397
-1.11827552318573,-0.44837111234664917,-1.1745615005493164
-1.1128982305526733,-0.4491180181503296,-1.1833690404891968
-1.1075104475021362,-0.4498874843120575,-1.1922143697738647
-1.1021133661270142,-0.45068037509918213,-1.2011007070541382
-1.0966829061508179,-0.45148733258247375,-1.210003137588501
-1.091233253479004,-0.4523144066333771,-1.2189383506774902
-1.0857609510421753,-0.4531606435775757,-1.2279040813446045
-1.0802801847457886,-0.454032301902771,-1.2369177341461182
-1.0747621059417725,-0.4549177289009094,-1.2459479570388794
-1.069231629371643,-0.4558277726173401,-1.255024790763855
-1.0636672973632812,-0.45675382018089294,-1.2641247510910034
-1.0580875873565674,-0.4577041268348694,-1.2732712030410767
-1.0524945259094238,-0.45868009328842163,-1.2824681997299194
-1.0468593835830688,-0.45966970920562744,-1.2916829586029053
-1.041202187538147,-0.46068209409713745,-1.300940990447998
-1.0355241298675537,-0.4617183208465576,-1.3102457523345947
-1.029813528060913,-0.4627735912799835,-1.3195840120315552
-1.0240795612335205,-0.4638526439666748,-1.3289694786071777
-1.018311858177185,-0.46495121717453003,-1.3383904695510864
-1.0125278234481812,-0.4660777449607849,-1.3478714227676392
-1.0067121982574463,-0.4672258496284485,-1.3573942184448242
-1.0008533000946045,-0.46839064359664917,-1.3669451475143433
-0.9949806332588196,-0.4695863723754883,-1.37656569480896
-0.9890583753585815,-0.4707968235015869,-1.3862088918685913
-0.983119547367096,-0.4720381796360016,-1.3959224224090576
-0.9771447777748108,-0.47330188751220703,-1.4056817293167114
-0.9711312651634216,-0.4745871424674988,-1.4154841899871826
-0.9650974273681641,-0.47590360045433044,-1.4253592491149902
-0.9590175747871399,-0.47723934054374695,-1.4352712631225586
-0.9529000520706177,-0.47859901189804077,-1.4452345371246338
-0.9467631578445435,-0.4799926280975342,-1.4552794694900513
-0.9405725598335266,-0.48140355944633484,-1.4653559923171997
-0.9343520998954773,-0.4828445613384247,-1.4755032062530518
-0.9280991554260254,-0.4843151867389679,-1.485719919204712
-0.9217959046363831,-0.4858068823814392,-1.495980143547058
-0.9154636263847351,-0.4873315989971161,-1.506320834159851
-0.9090876579284668,-0.48888248205184937,-1.5167211294174194
-0.902656078338623,-0.4904538094997406,-1.5271633863449097
-0.8961935043334961,-0.49205973744392395,-1.5376918315887451
-0.8896973729133606,-0.49369996786117554,-1.5483057498931885
-0.883141040802002,-0.4953606128692627,-1.5589619874954224
-1.7331969738006592,-0.49875691533088684,-0.1922079175710678
-1.726897120475769,-0.49729177355766296,-0.2022431343793869
-1.720666766166687,-0.49586331844329834,-0.21222400665283203
-1.7144336700439453,-0.49445053935050964,-0.22214311361312866
-1.7082463502883911,-0.4930673837661743,-0.23200766742229462
-1.702102541923523,-0.4917130768299103,-0.2418188601732254
-1.6960035562515259,-0.49038785696029663,-0.25157836079597473
-1.6899012327194214,-0.48907777667045593,-0.26128020882606506
-1.6838661432266235,-0.4878031015396118,-0.27093636989593506
-1.6778514385223389,-0.4865502119064331,-0.2805408537387848
-1.6718567609786987,-0.4853188991546631,-0.29009467363357544
-1.6659045219421387,-0.4841155707836151,-0.29960283637046814
-1.659972071647644,-0.48293358087539673,-0.30906257033348083
-1.6540601253509521,-0.48177310824394226,-0.31847500801086426
-1.6481901407241821,-0.4806402623653412,-0.32784542441368103
-1.6423394680023193,-0.47952839732170105,-0.3371705710887909
-1.6365300416946411,-0.47844383120536804,-0.34645605087280273
-1.6307189464569092,-0.47737404704093933,-0.3556939959526062
-1.6249486207962036,-0.47633132338523865,-0.36489441990852356
-1.6192193031311035,-0.4753156900405884,-0.3740587830543518
-1.6134876012802124,-0.47431445121765137,-0.3831782042980194
-1.607796311378479,-0.47334006428718567,-0.3922636806964874
-1.6021239757537842,-0.4723861515522003,-0.4013111889362335
-1.5964709520339966,-0.47145283222198486,-0.41032174229621887
-1.5908371210098267,-0.47054001688957214,-0.41929641366004944
-1.5852241516113281,-0.46964818239212036,-0.4282365143299103
-1.5796514749526978,-0.46878302097320557,-0.43714842200279236
-1.5740766525268555,-0.4679320156574249,-0.44602158665657043
-1.5685416460037231,-0.46710753440856934,-0.4548686444759369
-1.5630050897598267,-0.4662972390651703,-0.4636787474155426
-1.5574880838394165,-0.465507447719574,-0.4724588692188263
-1.5520093441009521,-0.4647437334060669,-0.4812157154083252
-1.54653000831604,-0.46399444341659546,-0.4899384379386902
-1.5410699844360352,-0.4632655382156372,-0.4986339807510376
-1.5356287956237793,-0.4625568687915802,-0.5073032379150391
-1.5302067995071411,-0.4618685841560364,-0.5159472227096558
-1.5248072147369385,-0.46120166778564453,-0.5245681405067444
-1.5194076299667358,-0.46054932475090027,-0.5331591367721558
-1.5140272378921509,-0.4599173367023468,-0.541727602481842
-1.5086662769317627,-0.45930588245391846,-0.5502747297286987
-1.5033237934112549,-0.45871463418006897,-0.5588011145591736
-1.4979822635650635,-0.45813828706741333,-0.5673011541366577
-1.4926600456237793,-0.4575824737548828,-0.5757825374603271
-1.4873422384262085,-0.4570426344871521,-0.5842403769493103
-1.4820444583892822,-0.4565236270427704,-0.5926817655563354
-1.476766586303711,-0.4560254216194153,-0.6011075377464294
-1.4714900255203247,-0.45554232597351074,-0.609511137008667
-1.4662154912948608,-0.45507460832595825,-0.6178934574127197
-1.4609605073928833,-0.45462772250175476,-0.6262627840042114
-1.4557291269302368,-0.4542030096054077,-0.6346218585968018
-1.450484275817871,-0.45378896594047546,-0.6429554224014282
-1.445258617401123,-0.453395813703537,-0.6512786149978638
-1.4400360584259033,-0.45301857590675354,-0.6595850586891174
-1.434833288192749,-0.45266252756118774,-0.6678832173347473
-1.4296389818191528,-0.452324241399765,-0.6761688590049744
-1.4244318008422852,-0.45199695229530334,-0.6844326853752136
-1.4192447662353516,-0.45169124007225037,-0.6926910877227783
-1.4140616655349731,-0.4514019787311554,-0.7009372115135193
-1.4089033603668213,-0.4511359632015228,-0.7091823816299438
-1.403734803199768,-0.4508819878101349,-0.7174097895622253
-1.3985705375671387,-0.4506448805332184,-0.7256276607513428
-1.3934108018875122,-0.4504247307777405,-0.733836829662323
-1.388247013092041,-0.45021888613700867,-0.7420334815979004
-1.3831040859222412,-0.45003542304039,-0.7502318620681763
-1.37795090675354,-0.4498644173145294,-0.7584159970283508
-1.3728231191635132,-0.44971758127212524,-0.766606330871582
-1.3676732778549194,-0.4495794475078583,-0.774777352809906
-1.3625445365905762,-0.4494643211364746,-0.7829540967941284
-1.3574107885360718,-0.44936367869377136,-0.7911226153373718
-1.3522722721099854,-0.44927772879600525,-0.7992836833000183
-1.3471406698226929,-0.44921040534973145,-0.8074450492858887
-1.3420206308364868,-0.4491634666919708,-0.8156104683876038
-1.3368815183639526,-0.4491267204284668,-0.8237622380256653
-1.3317501544952393,-0.4491092562675476,-0.8319173455238342
-1.3266342878341675,-0.4491139352321625,-0.8400818705558777
-1.3214973211288452,-0.4491284489631653,-0.8482335805892944
-1.3163739442825317,-0.44916465878486633,-0.8563951849937439
-1.3112335205078125,-0.44921228289604187,-0.864547848701477
-1.3061052560806274,-0.4492814838886261,-0.8727115988731384
-1.3009774684906006,-0.4493684470653534,-0.8808797001838684
-1.2958323955535889,-0.4494670629501343,-0.8890408873558044
-1.2906917333602905,-0.44958508014678955,-0.8972107172012329
-1.2855476140975952,-0.4497199058532715,-0.9053847789764404
-1.2804083824157715,-0.449874609708786,-0.9135698676109314
-1.2752540111541748,-0.45004233717918396,-0.9217526912689209
-1.2701047658920288,-0.4502304196357727,-0.9299485683441162
-1.264943242073059,-0.45043283700942993,-0.9381458759307861
-1.2597728967666626,-0.4506509602069855,-0.9463478326797485
-1.2546064853668213,-0.45088961720466614,-0.9545650482177734
-1.2494300603866577,-0.45114392042160034,-0.962787926197052
-1.2442493438720703,-0.45141613483428955,-0.9710217118263245
-1.2390588521957397,-0.4517044723033905,-0.9792631268501282
-1.2338637113571167,-0.4520110785961151,-0.987517237663269
-1.2286633253097534,-0.45233580470085144,-0.995784342288971
-1.2234443426132202,-0.4526740312576294,-1.0040547847747803
-1.218222737312317,-0.45303186774253845,-1.0123424530029297
-1.212998390197754,-0.45340949296951294,-1.0206482410430908
-1.2077581882476807,-0.4538021981716156,-1.028962254524231
-1.2025045156478882,-0.45421114563941956,-1.0372874736785889
-1.197251558303833,-0.4546419084072113,-1.0456371307373047
-1.1919865608215332,-0.4550899267196655,-1.0540013313293457
-1.186710000038147,-0.45555558800697327,-1.0623812675476074
-1.1814115047454834,-0.4560352563858032,-1.07076895236969
-1.1761152744293213,-0.4565383195877075,-1.079187035560608
-1.1708012819290161,-0.45705750584602356,-1.0876187086105347
-1.1654689311981201,-0.4575927257537842,-1.0960642099380493
-1.1601301431655884,-0.4581489562988281,-1.104535698890686
-1.1547753810882568,-0.4587227404117584,-1.1130255460739136
-1.1494053602218628,-0.45931458473205566,-1.121535301208496
-1.1440216302871704,-0.45992547273635864,-1.1300677061080933
-1.1386891603469849,-0.4605819582939148,-1.1386891603469849
-1.1333999633789062,-0.4612816274166107,-1.1473948955535889
-1.1280943155288696,-0.4620007872581482,-1.1561274528503418
-1.1227693557739258,-0.462738573551178,-1.1648846864700317
-1.117422103881836,-0.46349406242370605,-1.1736650466918945
-1.112048864364624,-0.46426618099212646,-1.1824657917022705
-1.1066648960113525,-0.4650614261627197,-1.1913042068481445
-1.1012722253799438,-0.46588122844696045,-1.2001839876174927
-1.0958459377288818,-0.46671536564826965,-1.209079623222351
-1.090400218963623,-0.46757030487060547,-1.2180079221725464
-1.0849318504333496,-0.46844497323036194,-1.2269665002822876
-1.0794557332992554,-0.46934616565704346,-1.2359737157821655
-1.0739418268203735,-0.47026145458221436,-1.2449970245361328
-1.0684154033660889,-0.47120216488838196,-1.254066824913025
-1.06285560131073,-0.4721595346927643,-1.2631601095199585
-1.057280421257019,-0.47314202785491943,-1.2722997665405273
-1.0516915321350098,-0.4741508662700653,-1.2814898490905762
-1.0460608005523682,-0.4751739203929901,-1.290697693824768
-1.0404078960418701,-0.4762204587459564,-1.2999485731124878
-1.0347342491149902,-0.47729161381721497,-1.3092461824417114
-1.0290279388427734,-0.47838252782821655,-1.318577527999878
-1.0232983827590942,-0.4794979691505432,-1.3279558420181274
-1.0175354480743408,-0.4806337058544159,-1.3373699188232422
-1.0117555856704712,-0.4817981421947479,-1.3468433618545532
-1.0059441328048706,-0.48298490047454834,-1.3563586473464966
-1.0000898838043213,-0.4841890335083008,-1.3659024238586426
-0.9942217469215393,-0.48542511463165283,-1.3755156993865967
-0.9883043169975281,-0.48667651414871216,-1.385151982307434
-0.9823697805404663,-0.4879596531391144,-1.3948578834533691
-0.976399838924408,-0.48926612734794617,-1.40461003780365
-0.9703906774520874,-0.49059462547302246,-1.4144047498703003
-0.9643617868423462,-0.49195563793182373,-1.4242727756500244
-0.958286464214325,-0.49333637952804565,-1.434177041053772
-0.9521735310554504,-0.49474191665649414,-1.444132685661316
-0.9460415840148926,-0.4961826503276825,-1.4541703462600708
-0.939855694770813,-0.4976411461830139,-1.464239239692688
-0.9336402416229248,-0.4991309344768524,-1.474379062652588
-1.6616313457489014,-0.4996280074119568,-0.3093715012073517
-1.6557133197784424,-0.4984273314476013,-0.31879329681396484
-1.6498368978500366,-0.4972551465034485,-0.3281729519367218
-1.6439802646636963,-0.4961048364639282,-0.3375073969364166
-1.6381654739379883,-0.49498292803764343,-0.346802294254303
-1.6323474645614624,-0.49387580156326294,-0.35604920983314514
-1.6265716552734375,-0.4927971363067627,-0.3652588725090027
-1.6208362579345703,-0.49174630641937256,-0.3744323253631592
-1.6150983572006226,-0.4907102882862091,-0.38356074690818787
-1.6094017028808594,-0.4897023141384125,-0.3926553428173065
-1.6037232875823975,-0.4887152910232544,-0.40171176195144653
-1.59806489944458,-0.48774978518486023,-0.4107314348220825
-1.5924253463745117,-0.48680540919303894,-0.4197149872779846
-1.5868068933486938,-0.48588278889656067,-0.42866405844688416
-1.5812280178070068,-0.4849875569343567,-0.4375847280025482
-1.5756479501724243,-0.4841071665287018,-0.4464668035507202
-1.5701069831848145,-0.4832540452480316,-0.45532259345054626
-1.5645653009414673,-0.4824158847332001,-0.4641415774822235
-1.5590424537658691,-0.48159870505332947,-0.47293034195899963
-1.5535579919815063,-0.4808084964752197,-0.48169592022895813
-1.5480732917785645,-0.4800333082675934,-0.49042731523513794
-1.5426074266433716,-0.47927913069725037,-0.499131441116333
-1.5371601581573486,-0.47854575514793396,-0.5078091025352478
-1.5317333936691284,-0.4778338670730591,-0.516461968421936
-1.5263279676437378,-0.4771437644958496,-0.525091290473938
-1.520923137664795,-0.47646889090538025,-0.533690869808197
-1.515536904335022,-0.47581496834754944,-0.5422677993774414
-1.5101704597473145,-0.47518232464790344,-0.5508233904838562
-1.5048226118087769,-0.4745706021785736,-0.5593582391738892
-1.4994757175445557,-0.473974347114563,-0.5678667426109314
-1.4941484928131104,-0.4733993709087372,-0.5763566493988037
-1.488824725151062,-0.47284066677093506,-0.5848227143287659
-1.4835221767425537,-0.4723038673400879,-0.5932726860046387
-1.4782384634017944,-0.47178828716278076,-0.6017066836357117
-1.4729567766189575,-0.4712885320186615,-0.6101186871528625
-1.467677116394043,-0.47080469131469727,-0.6185094118118286
-1.462416410446167,-0.4703421890735626,-0.6268868446350098
-1.4571799039840698,-0.4699028432369232,-0.6352543234825134
-1.4519296884536743,-0.4694744646549225,-0.6435961723327637
-1.4466989040374756,-0.4690677225589752,-0.651927649974823
-1.4414712190628052,-0.46867743134498596,-0.6602423191070557
-1.436262607574463,-0.4683089256286621,-0.6685485243797302
-1.4310632944107056,-0.4679589867591858,-0.6768425703048706
-1.425850749015808,-0.4676203429698944,-0.6851145029067993
-1.420658826828003,-0.4673041105270386,-0.6933812499046326
-1.4154704809188843,-0.46700483560562134,-0.7016355395317078
-1.4103068113327026,-0.4667295515537262,-0.7098888158798218
-1.40513277053833,-0.4664667546749115,-0.7181243300437927
-1.3999634981155396,-0.4662214517593384,-0.7263503670692444
-1.3947988748550415,-0.4659937620162964,-0.7345678210258484
-1.3896297216415405,-0.46578070521354675,-0.7427725195884705
-1.3844817876815796,-0.4655909538269043,-0.7509791254997253
-1.3793234825134277,-0.46541404724121094,-0.7591714262962341
-1.3741902112960815,-0.4652620255947113,-0.7673697471618652
-1.3690354824066162,-0.46511921286582947,-0.775549054145813
-1.3639017343521118,-0.46500009298324585,-0.7837339043617249
-1.3587627410888672,-0.46489593386650085,-0.7919105291366577
-1.3536189794540405,-0.4648069739341736,-0.8000797033309937
-1.3484822511672974,-0.46473732590675354,-0.8082491755485535
-1.3433573246002197,-0.46468883752822876,-0.8164228796958923
-1.3382129669189453,-0.4646507799625397,-0.8245826959609985
-1.33307683467865,-0.46463286876678467,-0.832746148109436
-1.3279554843902588,-0.46463754773139954,-0.8409185409545898
-1.322813630104065,-0.4646526277065277,-0.8490784168243408
-1.3176850080490112,-0.46469002962112427,-0.857248067855835
-1.3125395774841309,-0.4647393822669983,-0.8654090762138367
-1.3074063062667847,-0.4648109972476959,-0.8735809326171875
-1.3022732734680176,-0.4649008810520172,-0.8817570805549622
-1.2971233129501343,-0.46500301361083984,-0.889926552772522
-1.2919774055480957,-0.46512508392333984,-0.8981044292449951
-1.2868280410766602,-0.4652644991874695,-0.9062865972518921
-1.2816836833953857,-0.4654245674610138,-0.9144797921180725
-1.2765244245529175,-0.4655981659889221,-0.922670841217041
