-6.167341120251921716e+00,1.052026143699613669e-01,-9.039589242169665084e+00
-6.175836272248534264e+00,9.273058086928998023e-02,-9.040753231475161300e+00
-6.184384174355773034e+00,8.013540417251263648e-02,-9.041942224929140792e+00
-6.193008549222258630e+00,6.746512562331830054e-02,-9.043148503730105148e+00
-6.201708920010832848e+00,5.471461922225628882e-02,-9.044372902343081222e+00
-6.210469074258116784e+00,4.184001595077191382e-02,-9.045622424313830123e+00
-6.219291038522032800e+00,2.883928925094281226e-02,-9.046897427270220504e+00
-6.228196568497923913e+00,1.575964600143109351e-02,-9.048190341422365890e+00
-6.237184412488249841e+00,2.592503133389101322e-03,-9.049502597281740890e+00
-6.246237404355315270e+00,-1.071125358047808618e-02,-9.050842003056811080e+00
-6.255362219819335046e+00,-2.414280265274371118e-02,-9.052207068631457076e+00
-6.264578945645598473e+00,-3.765541404190386743e-02,-9.053590552041338668e+00
-6.273854501256255212e+00,-5.134540885391558618e-02,-9.055007563063906417e+00
-6.283243365296629968e+00,-6.507164328995074243e-02,-9.056435988375948654e+00
-6.292696244725493493e+00,-7.897693007889117212e-02,-9.057898239323900924e+00
-6.302248783120421471e+00,-9.296971648636187524e-02,-9.059380010793017135e+00
-6.311881668576506677e+00,-1.071127065986665627e-01,-9.060891137549685226e+00
-6.321602411278990807e+00,-1.213939794868501565e-01,-9.062429742047594772e+00
-6.331413455018309655e+00,-1.358149656623872659e-01,-9.063996122309969650e+00
-6.341317720422057214e+00,-1.503766187995942971e-01,-9.065590427348421798e+00
-6.351317532071379723e+00,-1.650813230842622659e-01,-9.067213044593142257e+00
-6.361432082661894860e+00,-1.798763880104097268e-01,-9.068855987021731124e+00
-6.371631510266570153e+00,-1.948693403572114846e-01,-9.070535794923113571e+00
-6.381950027951506677e+00,-2.099576601356538674e-01,-9.072236762473391281e+00
-6.392358191022185387e+00,-2.252519735664400002e-01,-9.073975966403292404e+00
-6.402890272149352136e+00,-2.406454691261323831e-01,-9.075737045237826095e+00
-6.413520641335753503e+00,-2.562406668037446877e-01,-9.077535824010180221e+00
-6.424280650624541344e+00,-2.719357618660005471e-01,-9.079356716105746017e+00
-6.435161240109709802e+00,-2.877743849128755471e-01,-9.081206635663317428e+00
-6.446163005837706628e+00,-3.037672647804292581e-01,-9.083087162205981002e+00
-6.457287378320006432e+00,-3.199227461189302346e-01,-9.084999666640566574e+00
-6.468523211488036218e+00,-3.363021025032075784e-01,-9.086953566500948654e+00
-6.479902572640685143e+00,-3.527875551551851174e-01,-9.088931099602984176e+00
-6.491399831780699792e+00,-3.695042738288911721e-01,-9.090951250026034103e+00
-6.503025121697691979e+00,-3.864279398292573831e-01,-9.093010471293734298e+00
-6.518316514500884118e+00,-3.868675836891206643e-01,-9.092601434418963180e+00
-6.538351960191039147e+00,-3.640320906013521096e-01,-9.088715032765673385e+00
-6.559123255023268761e+00,-3.358364710182222268e-01,-9.084048614928530441e+00
-6.579371280679015221e+00,-3.083007940620454690e-01,-9.079505578706072555e+00
-6.599078125962523522e+00,-2.816022047370942971e-01,-9.075111434886263595e+00
-6.618319906005171838e+00,-2.554197916358980081e-01,-9.070817277858065353e+00
-6.637076355227736535e+00,-2.299402365058931252e-01,-9.066650197932528243e+00
-6.655366547116545739e+00,-2.051425585121187112e-01,-9.062606082389162765e+00
-6.673204935797957482e+00,-1.810303339332612893e-01,-9.058684722611712203e+00
-6.690624482640532555e+00,-1.574874529212983987e-01,-9.054868058392809615e+00
-6.707646883734969201e+00,-1.344538339942964456e-01,-9.051146403977679000e+00
-6.724275089511183801e+00,-1.119888433784517190e-01,-9.047527895400332199e+00
-6.740535743245390954e+00,-8.998876899185503930e-02,-9.043996528813647018e+00
-6.756430633076933923e+00,-6.852036803665484399e-02,-9.040561542937563644e+00
-6.771983660468367638e+00,-4.748493522110308618e-02,-9.037207678983019576e+00
-6.787205807575491967e+00,-2.687102645340289087e-02,-9.033932791182802902e+00
-6.802099577793387475e+00,-6.741822657016172116e-03,-9.030745581815050826e+00
-6.816685117491988244e+00,1.299482494887982398e-02,-9.027631924578951583e+00
-6.830964959868697228e+00,3.227525860366498023e-02,-9.024600760171221481e+00
-6.844963870653418603e+00,5.126076847610150367e-02,-9.021627740094469772e+00
-6.858666546353606286e+00,6.969445854720746070e-02,-9.018750385472582565e+00
-6.872111193546561303e+00,8.790987640914593726e-02,-9.015919045636461959e+00
-6.885302595505026879e+00,1.058995118766752341e-01,-9.013134376237200485e+00
-6.898234314927367272e+00,1.234888425498930076e-01,-9.010421768853472457e+00
-6.910919822463301720e+00,1.407572618156400779e-01,-9.007769153544710861e+00
-6.923366628298071923e+00,1.577123990684476951e-01,-9.005174980590151534e+00
-6.935578927108553948e+00,1.742998948722807029e-01,-9.002646909186648116e+00
-6.947570427963046136e+00,1.906562438636747459e-01,-9.000164554545687423e+00
-6.959341987678317132e+00,2.066611638694730857e-01,-8.997745291421221481e+00
-6.970903020062951150e+00,2.223779550224271873e-01,-8.995379404256151901e+00
-6.982261698403863015e+00,2.378846994071928123e-01,-8.993055240342425094e+00
-6.993418905594853463e+00,2.529684892326322654e-01,-8.990803734490679489e+00
-7.004227969506291451e+00,2.549716821342435935e-01,-8.990484968850420699e+00
-7.014997522057501378e+00,2.548068156867948630e-01,-8.990494654605196700e+00
-7.025768287190703454e+00,2.546418300300565818e-01,-8.990514055917071090e+00
-7.036541078881827893e+00,2.544764867454496482e-01,-8.990543202588366256e+00
-7.047316709244159760e+00,2.543112626701322654e-01,-8.990582035014437423e+00
-7.058095983871726098e+00,2.541463962226835349e-01,-8.990630582997606979e+00
-7.068879738160876336e+00,2.539806953102079490e-01,-8.990688965747164474e+00
-7.079668774911669793e+00,2.538151136070219138e-01,-8.990757064053820358e+00
-7.090463883885649743e+00,2.536500087409940818e-01,-8.990834848115252242e+00
-7.101265921899584832e+00,2.534845462470975974e-01,-8.990922437140749679e+00
-7.112075708517340722e+00,2.533187261253324607e-01,-8.991019860932635055e+00
-7.122894033500460687e+00,2.531530252128568748e-01,-8.991127089688585983e+00
-7.133721776017455163e+00,2.529867282539335349e-01,-8.991244183013247238e+00
-7.144559710928706231e+00,2.528206697135892966e-01,-8.991371081301974044e+00
-7.155408732303885522e+00,2.526540151267973044e-01,-8.991507933566378341e+00
-7.166269562849310937e+00,2.524879565864530662e-01,-8.991654560992525802e+00
-7.177143148788718285e+00,2.523211827903715232e-01,-8.991811201998995529e+00
-7.188030294784812035e+00,2.521544089942899802e-01,-8.991977796981142745e+00
-7.198931880006102624e+00,2.519871583610502341e-01,-8.992154405543612228e+00
-7.209848709115294518e+00,2.518196693092313865e-01,-8.992341057488726364e+00
-7.220781616577414574e+00,2.516524186759916404e-01,-8.992537723014162765e+00
-7.231731570967940392e+00,2.514842143684354880e-01,-8.992744551131533370e+00
-7.242699287542609277e+00,2.513164868980375388e-01,-8.992961422631548629e+00
-7.253685854086188378e+00,2.511473289161649802e-01,-8.993188665339754806e+00
-7.264691911348609032e+00,2.509787669807401755e-01,-8.993425981232928024e+00
-7.275718442806510033e+00,2.508098474174467185e-01,-8.993673578927324996e+00
-7.286766327628401818e+00,2.506406894355741599e-01,-8.993931488225268112e+00
-7.297836579093245568e+00,2.504704585700956443e-01,-8.994199917743014083e+00
-7.308929808148650231e+00,2.503010621696439841e-01,-8.994478539655016647e+00
-7.320047177085188927e+00,2.501309505134550193e-01,-8.994767711589144454e+00
-7.331189639577178063e+00,2.499600043922391990e-01,-8.995067493150042282e+00
-7.342357940682677331e+00,2.497889390617338279e-01,-8.995377824733065353e+00
-7.353553183087615075e+00,2.496170392662016013e-01,-8.995698855349825607e+00
-7.364776231059340539e+00,2.494447818428007224e-01,-8.996030644604967819e+00
-7.376027978667525353e+00,2.492721667915311912e-01,-8.996373132893847213e+00
-7.387309379586485925e+00,2.490995517402616599e-01,-8.996726469228075729e+00
-7.398621506699828210e+00,2.489262214332548240e-01,-8.997090743014620529e+00
-7.409965403088835778e+00,2.487518182426420310e-01,-8.997466073462771163e+00
-7.421341873416213097e+00,2.485774150520292380e-01,-8.997852430770205245e+00
-7.432751901158598962e+00,2.484027734428373435e-01,-8.998249874541567550e+00
-7.444196767815856042e+00,2.482270589500394919e-01,-8.998658643195437179e+00
-7.455677188643721642e+00,2.480513444572416404e-01,-8.999078647324846969e+00
-7.467194415339736047e+00,2.478746762901273826e-01,-8.999510095546053634e+00
-7.478749401578215661e+00,2.476975312858549216e-01,-8.999952987859057174e+00
-7.490343250045088830e+00,2.475196710258451560e-01,-9.000407503077791915e+00
-7.501977003821639123e+00,2.473413339286771873e-01,-9.000873641202257858e+00
-7.513651705989150109e+00,2.471625199943510154e-01,-9.001351551244066940e+00
-7.525368608245162072e+00,2.469825139671293357e-01,-9.001841382214831100e+00
-7.537128515252379479e+00,2.468027463584867576e-01,-9.002343074509905563e+00
-7.548933036336211266e+00,2.466214290290800193e-01,-9.002856926152514205e+00
-7.560783035764006677e+00,2.464392772346464255e-01,-9.003382996747301803e+00
-7.572679467210082116e+00,2.462573638587919334e-01,-9.003921226689623580e+00
-7.584623820790556969e+00,2.460742583900419334e-01,-9.004471914002703414e+00
-7.596617288598326745e+00,2.458899608283964255e-01,-9.005035177895830856e+00
-7.608661003121642175e+00,2.457051864295927146e-01,-9.005611077973650680e+00
-7.620755977639464440e+00,2.455199351936308005e-01,-9.006199644038485275e+00
-7.632903821477202477e+00,2.453336110740629294e-01,-9.006801174113558517e+00
-7.645105547913817468e+00,2.451465716987577537e-01,-9.007415698001192794e+00
-7.657362706670073571e+00,2.449583402305570701e-01,-9.008043424317644821e+00
-7.669676370629576745e+00,2.447695127159086326e-01,-9.008684442469881759e+00
-7.682047791489867272e+00,2.445799699455228904e-01,-9.009338812062548385e+00
-7.694478518971709313e+00,2.443893542915311912e-01,-9.010006831118868575e+00
-5.359057195195464196e+00,2.809167495399442771e-01,-9.107209936806963668e+00
-5.379112489232329430e+00,2.806099048286405662e-01,-9.105080054232882247e+00
-5.398941524037627282e+00,2.803062787681547263e-01,-9.102988199422167526e+00
-5.418549664029387536e+00,2.800056329399076560e-01,-9.100933537909792648e+00
-5.437942750462798180e+00,2.797090402275053123e-01,-9.098915145823763595e+00
-5.457124717244414391e+00,2.794150701194730857e-01,-9.096932516524599777e+00
-5.476101405629424157e+00,2.791247954994169334e-01,-9.094984666535662399e+00
-5.494876749524382653e+00,2.788372626930204490e-01,-9.093071119019793258e+00
-5.513455755719451012e+00,2.785529485374418357e-01,-9.091191069314287887e+00
-5.531842715749053063e+00,2.782716146141019919e-01,-9.089343831965731368e+00
-5.550041682729033532e+00,2.779927840858427146e-01,-9.087528930136965499e+00
-5.568057186612395348e+00,2.777169337898222068e-01,-9.085745588967608199e+00
-5.585893399724272790e+00,2.774439445167509177e-01,-9.083993242213534103e+00
-5.603554017552641930e+00,2.771734586387601951e-01,-9.082271323630617843e+00
-5.621043570050505700e+00,2.769060722022977927e-01,-9.080579117963122115e+00
-5.638364679822234216e+00,2.766407123237577537e-01,-9.078916327187823043e+00
-5.655522115239409509e+00,2.763780942588773826e-01,-9.077282206246660934e+00
-5.672519094952849450e+00,2.761179795890775779e-01,-9.075676278302477584e+00
-5.689359314450530114e+00,2.758606067329374412e-01,-9.074097977111147628e+00
-5.706045515546111169e+00,2.756050220161405662e-01,-9.072546974847124801e+00
-5.722581155308989587e+00,2.753512254386869529e-01,-9.071022794673250900e+00
-5.738970286855010094e+00,2.751002898841825584e-01,-9.069524721333788619e+00
-5.755215771207121911e+00,2.748518577247587302e-01,-9.068052367398546920e+00
-5.771320111760405602e+00,2.746049752860990623e-01,-9.066605464646624313e+00
-5.787287361630705895e+00,2.743609538703886130e-01,-9.065183297822283492e+00
-5.803119428166655602e+00,2.741186013847318748e-01,-9.063785717913912521e+00
-5.818819649228362145e+00,2.738781562477079490e-01,-9.062412188479708419e+00
-5.834390647420195641e+00,2.736396184593168357e-01,-9.061062351891802535e+00
-5.849835402974394860e+00,2.734028688102689841e-01,-9.059735790917681442e+00
-5.865156657704619469e+00,2.731685033470121482e-01,-9.058432058522509323e+00
-5.880357034215239587e+00,2.729361644416776755e-01,-9.057150797078417526e+00
-5.895438439854888024e+00,2.727047792106596091e-01,-9.055891857573794113e+00
-5.910404450902251305e+00,2.724762550025907615e-01,-9.054654554555224166e+00
-5.925256497868804040e+00,2.722485652595487693e-01,-9.053438858220385299e+00
-5.939997203358916344e+00,2.720223060279813865e-01,-9.052244351336764083e+00
-5.954629547604826989e+00,2.717983117729154685e-01,-9.051070527264879928e+00
-5.969155676373747887e+00,2.715764632850614646e-01,-9.049917117783831344e+00
-5.983577139386443200e+00,2.713556876808134177e-01,-9.048784003684328781e+00
-5.997896201619414391e+00,2.711358657508817771e-01,-9.047670857140825973e+00
-6.012115843304900231e+00,2.709181895881620505e-01,-9.046577201316164718e+00
-6.026237673768309655e+00,2.707023015647855857e-01,-9.045502797791765914e+00
-6.040263302335051598e+00,2.704870095878568748e-01,-9.044447586962984786e+00
-6.053731746682433190e+00,2.694430938392606834e-01,-9.043559447953509078e+00
-6.062743432530669274e+00,2.604458919197050193e-01,-9.044105396697329269e+00
-6.070505268582610192e+00,2.490532985359159568e-01,-9.045084492394732223e+00
-6.078316040047911706e+00,2.375881066947904685e-01,-9.046081678101824508e+00
-6.086148209580687585e+00,2.259940496116605857e-01,-9.047106818387316451e+00
-6.094071216592101159e+00,2.143990388542142966e-01,-9.048137352893160568e+00
-6.102031178483275475e+00,2.026972165733305076e-01,-9.049191908070849166e+00
-6.110044248112944665e+00,1.909152856498685935e-01,-9.050265715548800216e+00
-6.118108458527831139e+00,1.790453782707182029e-01,-9.051360176036165939e+00
-6.126233346471098962e+00,1.671023955970731834e-01,-9.052472637126253829e+00
-6.134420759686736169e+00,1.550863376289335349e-01,-9.053603128621386276e+00
-6.142652757176665368e+00,1.429556003242460349e-01,-9.054758803078936324e+00
-6.150959916123656335e+00,1.307697883277860740e-01,-9.055929408500002609e+00
-6.159315533646849694e+00,1.184673896461454490e-01,-9.057125435302065597e+00
-6.167736537465361657e+00,1.060801139503446677e-01,-9.058341519067095504e+00
-6.176226325043944421e+00,9.361058384475384742e-02,-9.059577153155611740e+00
-6.184769697198180261e+00,8.101957947311078101e-02,-9.060839013287829147e+00
-6.193389959344176354e+00,6.835490376052533179e-02,-9.062118993232058273e+00
-6.202088780411986413e+00,5.561607986983929663e-02,-9.063417182395266281e+00
-6.210845596799162927e+00,4.274922520217572242e-02,-9.064742730090426193e+00
-6.219663984784392419e+00,2.975553185043011695e-02,-9.066095368096636520e+00
-6.228565223225859704e+00,1.668137222823773413e-02,-9.067467347810076461e+00
-6.237549252518920007e+00,3.521381917568788822e-03,-9.068859593102740035e+00
-6.246597714432982507e+00,-9.777129587558164303e-03,-9.070280925462054000e+00
-6.255718834409026208e+00,-2.320104926529253930e-02,-9.071729109713839279e+00
-6.264931089886931481e+00,-3.670793860855425805e-02,-9.073197201916979537e+00
-6.274202651986388268e+00,-5.039101928177203149e-02,-9.074700580069826827e+00
-6.283587403306273522e+00,-6.411010116043414087e-02,-9.076216117570208297e+00
-6.293035752782134118e+00,-7.800942748489703149e-02,-9.077767745683001266e+00
-6.302584059247283044e+00,-9.199506133499468774e-02,-9.079339907595919357e+00
-6.312212712773589196e+00,-1.061308988899263284e-01,-9.080943183133410201e+00
-6.321928925523070397e+00,-1.204057344764741799e-01,-9.082575784156130538e+00
-6.331735677727965417e+00,-1.348190912574800393e-01,-9.084237651059435592e+00
-6.341635472783354821e+00,-1.493738302558931252e-01,-9.085929260680483566e+00
-6.351630754479674401e+00,-1.640711435646089456e-01,-9.087650911042498336e+00
-6.361741013535765710e+00,-1.788581022590669534e-01,-9.089393929669665084e+00
-6.371936030396727624e+00,-1.938431867927583596e-01,-9.091176168153094039e+00
-6.382249660500792565e+00,-2.089243540138276956e-01,-9.092980996796892867e+00
-6.392653234013823571e+00,-2.242110380500825784e-01,-9.094826296994494186e+00
-6.403180546769408288e+00,-2.395964273780855081e-01,-9.096694843003557907e+00
-6.413804717072753014e+00,-2.551890024513276956e-01,-9.098604158589647994e+00
-6.424551553735045495e+00,-2.709079393714937112e-01,-9.100541309544848190e+00
-6.435424394616393151e+00,-2.867506155342134377e-01,-9.102505968043612228e+00
-6.446421332368163171e+00,-3.027361044258150002e-01,-9.104501322934435592e+00
-6.457540876874236169e+00,-3.188837179512056252e-01,-9.106530563065813766e+00
-6.468771643647460046e+00,-3.352559217781099221e-01,-9.108603851029680953e+00
-6.480145878800658288e+00,-3.517344602912935159e-01,-9.110702202746676193e+00
-6.491638131150511803e+00,-3.684430727333101174e-01,-9.112845675179766403e+00
-6.503260679253844323e+00,-3.853481420845064065e-01,-9.115028903910921798e+00
-6.518529541501311364e+00,-3.858614572853120706e-01,-9.114606664607332931e+00
-6.538541234740523400e+00,-3.631098875373872659e-01,-9.110494629571245895e+00
-6.559304751166609826e+00,-3.349240431160005471e-01,-9.105542675683306442e+00
-6.579544998416213097e+00,-3.073986181587251565e-01,-9.100721792409228073e+00
-6.599244184502867761e+00,-2.807102808326753518e-01,-9.096058950850771652e+00
-6.618477679499892297e+00,-2.545426496833833596e-01,-9.091502980420397506e+00
-6.637226558932570519e+00,-2.290745386451753518e-01,-9.087081299254702316e+00
-6.655510313519743981e+00,-2.042825826972993752e-01,-9.082789347598360763e+00
-6.673343725213316979e+00,-1.801677355140718362e-01,-9.078626320788668380e+00
-6.690758086451796594e+00,-1.566234239906343362e-01,-9.074574605653094039e+00
-6.707774080046919885e+00,-1.335962423652681252e-01,-9.070625023076342330e+00
-6.724395669707564416e+00,-1.111400732368501565e-01,-9.066785291859911666e+00
-6.740650005349425378e+00,-8.914738982620562524e-02,-9.063037798831270919e+00
-6.756538577088622155e+00,-6.768733352127398462e-02,-9.059392766186999069e+00
-6.772085375794676843e+00,-4.666000693741167993e-02,-9.055833862254427657e+00
-6.787301577338484826e+00,-2.605325072708453149e-02,-9.052358553836153732e+00
-6.802189387091902795e+00,-5.931914743808164303e-03,-9.048976496884630905e+00
-6.816769160041121545e+00,1.379758030471478492e-02,-9.045672373006151901e+00
-6.831043265470770898e+00,3.307026535567914038e-02,-9.042455897757815109e+00
-6.845033369669226708e+00,5.201381355819378882e-02,-9.039306537339495407e+00
-6.858729831585196557e+00,7.042938381728802710e-02,-9.036254988143252120e+00
-6.872169680604247155e+00,8.864158302840863257e-02,-9.033249900767611251e+00
-6.885355524429587426e+00,1.066171517997709373e-01,-9.030296103188799606e+00
-6.898282505282668176e+00,1.242017141014066794e-01,-9.027417288253115402e+00
-6.910963348755148949e+00,1.414656034141508201e-01,-9.024602131078051315e+00
-6.923405594834593835e+00,1.584174028068510154e-01,-9.021848843524264083e+00
-6.935613289186266961e+00,1.749992957740751365e-01,-9.019166068265246139e+00
-6.947600312241820397e+00,1.913517108589140037e-01,-9.016531542966173873e+00
-6.959367476114539208e+00,2.073532930046049216e-01,-9.013963894078539596e+00
-6.970924198338297906e+00,2.230680575996366599e-01,-9.011452720591830001e+00
-6.982278566518334451e+00,2.385718217521635154e-01,-9.008985952565478073e+00
-6.993431474724320474e+00,2.536512008338895896e-01,-9.006596551368044601e+00
-7.004237143033651414e+00,2.557191243797269919e-01,-9.006248102614687667e+00
-7.015002107889858785e+00,2.555541387229887107e-01,-9.006258384415911422e+00
-7.025768287190703454e+00,2.553893914848295310e-01,-9.006278948018358932e+00
-7.036536490255502763e+00,2.552242866188016990e-01,-9.006309853026674972e+00
-7.047307531991509499e+00,2.550590625434843162e-01,-9.006351099440859542e+00
-7.058082222649363580e+00,2.548939576774564841e-01,-9.006402627656267867e+00
-7.068861372479704919e+00,2.547288528114286521e-01,-9.006464497277544723e+00
-7.079645819672850671e+00,2.545630326896635154e-01,-9.006536827513979659e+00
-7.090436339089182916e+00,2.543979278236356834e-01,-9.006619350144671188e+00
-7.101233765193728509e+00,2.542328229576078513e-01,-9.006712273785876022e+00
-7.112038939902094903e+00,2.540670028358427146e-01,-9.006815658042238937e+00
-7.122852682778147759e+00,2.539011827140775779e-01,-9.006929443309115157e+00
-7.133675798484591546e+00,2.537351241737333396e-01,-9.007053659388827072e+00
-7.144509128937033715e+00,2.535689464240995505e-01,-9.007188365886019454e+00
-7.155353508600501122e+00,2.534025302558866599e-01,-9.007333562800692306e+00
-7.166209734687117638e+00,2.532364717155424216e-01,-9.007489160725878463e+00
-7.177078686365393700e+00,2.530698171287504294e-01,-9.007655368277834640e+00
-7.187961198100356164e+00,2.529030433326688865e-01,-9.007832155654238449e+00
-7.198858119258193078e+00,2.527359119087186912e-01,-9.008019552657412277e+00
-7.209770314106253686e+00,2.525685420661893943e-01,-9.008217589089678512e+00
-7.220698587307242455e+00,2.524010530143705466e-01,-9.008426294753359542e+00
-7.231643877634314599e+00,2.522329679161039451e-01,-9.008645759055422531e+00
-7.242606885442046227e+00,2.520655980735746482e-01,-9.008875862786577926e+00
-7.253588787922171655e+00,2.518964400917020896e-01,-9.009116993377016769e+00
-7.264590166219977441e+00,2.517278781562772849e-01,-9.009368823001192794e+00
-7.275612003812102380e+00,2.515589585929838279e-01,-9.009631560275362716e+00
-7.286655164965895715e+00,2.513901582389799216e-01,-9.009905205199526534e+00
-7.297720707663802209e+00,2.512199273735014060e-01,-9.010189996192263351e+00
-7.308809198149947228e+00,2.510507693916288474e-01,-9.010485665032671676e+00
-7.319921888121871056e+00,2.508804193168607810e-01,-9.010792539546297775e+00
-7.331059552439955773e+00,2.507095924049345115e-01,-9.011110619733141647e+00
-7.342223144778517785e+00,2.505384078651395896e-01,-9.011439935395525680e+00
-7.353413559207228722e+00,2.503669849067655662e-01,-9.011780546138094650e+00
-7.364631868609694543e+00,2.501943698554960349e-01,-9.012132630774782882e+00
-7.375878788241652551e+00,2.500222316413847068e-01,-9.012496040293978439e+00
-7.387155480393675866e+00,2.498491397529569724e-01,-9.012871013114260421e+00
-7.398462749728468957e+00,2.496760478645292380e-01,-9.013257519433306442e+00
-7.409801788338927331e+00,2.495020023017850974e-01,-9.013655767867373214e+00
-7.421173400887755456e+00,2.493275991111723044e-01,-9.014065728614138351e+00
-7.432578600653914513e+00,2.491530767112699607e-01,-9.014487461278246627e+00
-7.444018609532622399e+00,2.489772430091825584e-01,-9.014921234080599532e+00
-7.455494112977294030e+00,2.488016477256742576e-01,-9.015366868207262740e+00
-7.467006452092436852e+00,2.486250987678495505e-01,-9.015824691483782516e+00
-7.478556550750044885e+00,2.484478345542875388e-01,-9.016294703910158859e+00
-7.490145422229079308e+00,2.482702127128568748e-01,-9.016776935288714157e+00
-7.501774288424758019e+00,2.480917564063993552e-01,-9.017271624038027511e+00
-7.513444013604430261e+00,2.479129424720731834e-01,-9.017778710553454147e+00
-7.525155938872603478e+00,2.477331748634306052e-01,-9.018298492858217941e+00
-7.536910779485014977e+00,2.475535264640775779e-01,-9.018830792138384567e+00
-7.548710234174040856e+00,2.473723283439603904e-01,-9.019376055428789840e+00
-7.560555167207030358e+00,2.471904149681058982e-01,-9.019934252927111373e+00
-7.572446651467589440e+00,2.470081439643827537e-01,-9.020505414435671554e+00
-7.584385879048613610e+00,2.468251577049223044e-01,-9.021089748570727096e+00
-7.596374340066222253e+00,2.466409793525663474e-01,-9.021687434146212325e+00
-7.608412809380797448e+00,2.464563241630521873e-01,-9.022298500964449630e+00
-7.620502717503813805e+00,2.462711921363798240e-01,-9.022923038432406173e+00
-7.632645316132811608e+00,2.460849872261015037e-01,-9.023561314770983444e+00
-7.644841976174620690e+00,2.458978286415067771e-01,-9.024213419387148605e+00
-7.657093889722136559e+00,2.457097163825956443e-01,-9.024879501292513595e+00
-7.669402248868254723e+00,2.455210080772367576e-01,-9.025559679696367965e+00
-7.681768424519805016e+00,2.453314653068510154e-01,-9.026254044005678878e+00
-7.694193906792906823e+00,2.451409688621488669e-01,-9.026962892243670211e+00
-5.358180530080107751e+00,2.800071826606718162e-01,-9.129205987880038009e+00
-5.378246552953032555e+00,2.797003379493681052e-01,-9.126951024958895431e+00
-5.398086078175810876e+00,2.793965926795927146e-01,-9.124736354777621017e+00
-5.417704589375762048e+00,2.790960660606351951e-01,-9.122561053464220748e+00
-5.437107808598784509e+00,2.787991157203641990e-01,-9.120424197146700607e+00
-5.456299788960722985e+00,2.785050264030424216e-01,-9.118325189778612838e+00
-5.475286967763213219e+00,2.782149902015653709e-01,-9.116262898871706710e+00
-5.494072086819914880e+00,2.779272189765897849e-01,-9.114237026402758346e+00
-5.512661106595305505e+00,2.776430240303007224e-01,-9.112246529290484176e+00
-5.531057603368071618e+00,2.773614516883817771e-01,-9.110290930697725997e+00
-5.549266226300505700e+00,2.770826211601224998e-01,-9.108369455764101730e+00
-5.567291266927031579e+00,2.768067708641019919e-01,-9.106481389233874069e+00
-5.585137016782073083e+00,2.765337815910307029e-01,-9.104626135060595260e+00
-5.602807052144316735e+00,2.762632957130399802e-01,-9.102803097197817550e+00
-5.620305664548186364e+00,2.759956708579984763e-01,-9.101011590192126022e+00
-5.637636191853789391e+00,2.757304301887479880e-01,-9.099251107404040084e+00
-5.654802448758391442e+00,2.754674544959989646e-01,-9.097521112391756759e+00
-5.671808488377837243e+00,2.752073398261991599e-01,-9.095820860097216354e+00
-5.688657529362944665e+00,2.749499669700590232e-01,-9.094149903485583053e+00
-5.705352671155242028e+00,2.746943822532621482e-01,-9.092507825324343429e+00
-5.721897251614836755e+00,2.744407048850980857e-01,-9.090894089171694503e+00
-5.738294847020415368e+00,2.741896501213041404e-01,-9.089308098981188522e+00
-5.754549033650664391e+00,2.739412179618803123e-01,-9.087749288508700118e+00
-5.770661718854216637e+00,2.736940971046415427e-01,-9.086217449137972579e+00
-5.786637194165495934e+00,2.734498372703519919e-01,-9.084711835810946212e+00
-5.802477843770293298e+00,2.732074847846952537e-01,-9.083232180306719528e+00
-5.818186290272978844e+00,2.729670396476713279e-01,-9.081778005788134323e+00
-5.833765633115080895e+00,2.727285018592802146e-01,-9.080348895022677169e+00
-5.849218494900969567e+00,2.724917522102323630e-01,-9.078944460580157028e+00
-5.864547736653594079e+00,2.722571483283964255e-01,-9.077564195821093307e+00
-5.879755980977324548e+00,2.720244517951933005e-01,-9.076207772919939742e+00
-5.894845492848662438e+00,2.717934241920438865e-01,-9.074874864051150070e+00
-5.909819371709136071e+00,2.715645423561063865e-01,-9.073564932772921310e+00
-5.924679167279509606e+00,2.713367334037748435e-01,-9.072277859875963912e+00
-5.939427740582732262e+00,2.711107125907865623e-01,-9.071013168523119674e+00
-5.954067833432463708e+00,2.708867183357206443e-01,-9.069770441481875167e+00
-5.968601353177336755e+00,2.706643930107084373e-01,-9.068549380729006515e+00
-5.983030684003142419e+00,2.704438558250394919e-01,-9.067349658438967452e+00
-5.997357256421355309e+00,2.702240338951078513e-01,-9.066171185204790817e+00
-6.011584289082793298e+00,2.700062385230985740e-01,-9.065013335177706466e+00
-6.025713570126799645e+00,2.697902312904325584e-01,-9.063875869939135299e+00
-6.039746589669493737e+00,2.695748201042142966e-01,-9.062758700082110153e+00
-6.053231723317412438e+00,2.685477128654447654e-01,-9.061815158555315719e+00
-6.062306888112334313e+00,2.596526733070341209e-01,-9.062372998425768600e+00
-6.070074982651976647e+00,2.482601991325346091e-01,-9.063408539721773849e+00
-6.077889568814543786e+00,2.367901197105375388e-01,-9.064464108178423629e+00
-6.085725314626006188e+00,2.251911750465360740e-01,-9.065549300143526779e+00
-6.093652076730040612e+00,2.135912767082182029e-01,-9.066640184352205978e+00
-6.101615972527770104e+00,2.018848052650419334e-01,-9.067756400534914718e+00
-6.109632737645415368e+00,1.900978675514188865e-01,-9.068893150517748580e+00
-6.117700881966857018e+00,1.782230725913969138e-01,-9.070051656195925460e+00
-6.125829584607390466e+00,1.662750831275907615e-01,-9.071229294965075240e+00
-6.134020693311003747e+00,1.542537799507108787e-01,-9.072426037022875533e+00
-6.142256684312132897e+00,1.421182742744413474e-01,-9.073649362752245651e+00
-6.150566823491362634e+00,1.299253097206083396e-01,-9.074888841340349899e+00
-6.158921427735594811e+00,1.176069369941679099e-01,-9.076156900355623947e+00
-6.167344040879515710e+00,1.052090516715971091e-01,-9.077445165345476852e+00
-6.175837881573943200e+00,9.273427635726605445e-02,-9.078753159472750411e+00
-6.184385187634734216e+00,8.013766914901410132e-02,-9.080088988969134078e+00
-6.193007118710784020e+00,6.746178776321087867e-02,-9.081444994637774215e+00
-6.201710827359465661e+00,5.471926838454876929e-02,-9.082818911502169357e+00
-6.210475273141173425e+00,4.185503632125531226e-02,-9.084220633933352218e+00
-6.219300396451262536e+00,2.886241585311566382e-02,-9.085651383826540695e+00
-6.228206522473601403e+00,1.578444153365765601e-02,-9.087103412577913986e+00
-6.237194545277861657e+00,2.618490758511171634e-03,-9.088577256629275070e+00
-6.246247596749571862e+00,-1.068502753677691430e-02,-9.090081707665728317e+00
-6.255372829446105065e+00,-2.411466926040972680e-02,-9.091614768931673751e+00
-6.264589495667723718e+00,-3.762704223099078149e-02,-9.093168811032580123e+00
-6.273865349301604333e+00,-5.131584495010699243e-02,-9.094760284850405441e+00
-6.283254570969847741e+00,-6.504041045608843774e-02,-9.096364543864535079e+00
-6.292707450398711266e+00,-7.894498198929156274e-02,-9.098006949851320968e+00
-6.302260465630797448e+00,-9.293562262955035180e-02,-9.099671051928805099e+00
-6.311893351086882653e+00,-1.070781359046968362e-01,-9.101368383595751510e+00
-6.321614153394011559e+00,-1.213584551185640237e-01,-9.103096501061724410e+00
-6.331425495156554284e+00,-1.357777723640474221e-01,-9.104855702349947677e+00
-6.341329998978880944e+00,-1.503379949897798440e-01,-9.106646315285967574e+00
-6.351330585488585534e+00,-1.650393614143403909e-01,-9.108468429276751266e+00
-6.361445791730193200e+00,-1.798310884803804299e-01,-9.110313371846483932e+00
-6.371645874985961022e+00,-1.948211798042329690e-01,-9.112199769446657882e+00
-6.381964273461607995e+00,-2.099085459083589456e-01,-9.114110306927965865e+00
-6.392372317322997155e+00,-2.252021440834077737e-01,-9.116063819358156906e+00
-6.402904696473387780e+00,-2.405932554573091409e-01,-9.118041650483416305e+00
-6.413532502660063805e+00,-2.561967977851900002e-01,-9.120063589045809493e+00
-6.424272425183562341e+00,-2.719667562812837502e-01,-9.122121826836870895e+00
-6.435142643460539880e+00,-2.878466257423433206e-01,-9.124206797311114059e+00
-6.446141250142363610e+00,-3.038542875618013284e-01,-9.126321629712389694e+00
-6.457266159066466393e+00,-3.200095304817232034e-01,-9.128469900319384323e+00
-6.468502647885588708e+00,-3.363886484474214456e-01,-9.130664602944658981e+00
-6.479882426270751061e+00,-3.528750547737153909e-01,-9.132886038253115402e+00
-6.491380341061858239e+00,-3.695910581916841409e-01,-9.135155097672747360e+00
-6.503012723931578698e+00,-3.864849218696626565e-01,-9.137463138530062423e+00
-6.518257744321135583e+00,-3.871451029151948831e-01,-9.137040899226473556e+00
-6.538249291190413537e+00,-3.645320543617280862e-01,-9.132712797353075729e+00
-6.559025622615126672e+00,-3.363273748725923440e-01,-9.127469466159151779e+00
-6.579278714665679040e+00,-3.087814459175142190e-01,-9.122364536950396285e+00
-6.598989166030196252e+00,-2.820799955696138284e-01,-9.117428080270098434e+00
-6.618232823619154992e+00,-2.559040197700532815e-01,-9.112605528065966354e+00
-6.636992700108794274e+00,-2.304223188728364846e-01,-9.107924209067629562e+00
-6.655288852462081017e+00,-2.056072363227876565e-01,-9.103378550240801559e+00
-6.673136062630919518e+00,-1.814585337013276956e-01,-9.098967597911165939e+00
-6.690564222344664636e+00,-1.578772672981294534e-01,-9.094673917720125900e+00
-6.707590825566557946e+00,-1.348314890235933206e-01,-9.090491370389269576e+00
-6.724222279795912804e+00,-1.123605379432710549e-01,-9.086425677964495407e+00
-6.740486062773970666e+00,-9.035426467361773462e-02,-9.082457886168764816e+00
-6.756383992442397179e+00,-6.888038009109820337e-02,-9.078598455617235885e+00
-6.771939880856780114e+00,-4.783994048538531274e-02,-9.074830249974535690e+00
-6.787164948591498437e+00,-2.722007125320757837e-02,-9.071150527427004562e+00
-6.802061490425376000e+00,-7.085145410922422116e-03,-9.067569420764254318e+00
-6.816649637827185693e+00,1.265579372939740210e-02,-9.064071164557741866e+00
-6.830932087907103600e+00,3.194147259292279273e-02,-9.060665384957598434e+00
-6.844922534832266869e+00,5.081301838454876929e-02,-9.057344720790194259e+00
-6.858626655945090356e+00,6.923133045730267554e-02,-9.054115162322329269e+00
-6.872075311550406518e+00,8.746105343398724585e-02,-9.050932333895968185e+00
-6.885268024811057153e+00,1.054310193687406638e-01,-9.047807590195940719e+00
-6.898203111895827355e+00,1.230273833900419334e-01,-9.044759378859804855e+00
-6.910891949841288628e+00,1.403035512596098044e-01,-9.041778401562975631e+00
-6.923342041382102074e+00,1.572676292091337302e-01,-9.038862899968432174e+00
-6.935557461985854211e+00,1.738629928260770896e-01,-9.036021874377535568e+00
-6.947551920720843377e+00,1.902257791191068748e-01,-9.033232406804369674e+00
-6.959326468118933740e+00,2.062398782402006248e-01,-9.030513302514361129e+00
-6.970890626022128167e+00,2.219741931587186912e-01,-9.027852878997133956e+00
-6.982252206364182534e+00,2.374979844718900779e-01,-9.025239334533022628e+00
-6.993412058511284890e+00,2.525965562492338279e-01,-9.022707776257799850e+00
-7.004225872167853417e+00,2.548008552223173240e-01,-9.022316561171816574e+00
-7.014996474319604935e+00,2.546359887748685935e-01,-9.022327409217165695e+00
-7.025768287190703454e+00,2.544711223274198630e-01,-9.022349164912508712e+00
-7.036542126619724336e+00,2.543057790428129294e-01,-9.022381917664812789e+00
-7.047318804719952645e+00,2.541405549674955466e-01,-9.022425548264788375e+00
-7.058099135467318597e+00,2.539753308921781638e-01,-9.022480146119402633e+00
-7.068883925387171807e+00,2.538101068168607810e-01,-9.022545621821688400e+00
-7.079674008944539132e+00,2.536444059043851951e-01,-9.022622154185580001e+00
-7.090470187076834740e+00,2.534790626197782615e-01,-9.022709594199465499e+00
-7.101273253270892205e+00,2.533139577537504294e-01,-9.022807941863344894e+00
-7.112084097871092858e+00,2.531478992134061912e-01,-9.022917405793474899e+00
-7.122903495737818780e+00,2.529819598823515037e-01,-9.023037896582888351e+00
-7.133732266434935632e+00,2.528160205512968162e-01,-9.023169384429262863e+00
-7.144571259328631463e+00,2.526498428016630271e-01,-9.023311958739565597e+00
-7.155421323785094323e+00,2.524830690055814841e-01,-9.023465708920763717e+00
-7.166283227214125695e+00,2.523170104652372459e-01,-9.023630426356600509e+00
-7.177157856234816613e+00,2.521504750877348044e-01,-9.023806349465655074e+00
-7.188046045312193932e+00,2.519837012916532615e-01,-9.023993508050249801e+00
-7.198948733219412865e+00,2.518160930305448630e-01,-9.024191991517351852e+00
-7.209866635212210717e+00,2.516484847694364646e-01,-9.024401650855349288e+00
-7.220800615557936730e+00,2.514811149269071677e-01,-9.024622575471209274e+00
-7.231751627930907311e+00,2.513129106193510154e-01,-9.024854944178866134e+00
-7.242720417389182153e+00,2.511451831489530662e-01,-9.025098578164385543e+00
-7.253707997211722436e+00,2.509765020042387107e-01,-9.025353775450991378e+00
-7.264715112456587853e+00,2.508079400688139060e-01,-9.025620387027071700e+00
-7.275742761501578393e+00,2.506386628776517966e-01,-9.025898591706560836e+00
-7.286791689404753747e+00,2.504697433143583396e-01,-9.026188300082491622e+00
-7.297863043555525842e+00,2.502993932395902732e-01,-9.026489839980410324e+00
-7.308957375296858849e+00,2.501297584205595115e-01,-9.026802883574770675e+00
-7.320075876721648278e+00,2.499594083457914451e-01,-9.027127788493441329e+00
-7.331219412097243371e+00,2.497884622245756248e-01,-9.027464554736422286e+00
-7.342388756284026208e+00,2.496175161033598044e-01,-9.027813152501391158e+00
-7.353585071572569909e+00,2.494457355171171287e-01,-9.028173790404604659e+00
-7.364809192427901330e+00,2.492734780937162498e-01,-9.028546468446062789e+00
-7.376062042722014489e+00,2.491008630424467185e-01,-9.028931246230410324e+00
-7.387344635733870568e+00,2.489278903633085349e-01,-9.029328242966936813e+00
-7.398657805928496423e+00,2.487546792655912498e-01,-9.029737428853319869e+00
-7.410002775201109948e+00,2.485803952842680076e-01,-9.030159042308138595e+00
-7.421380407819060387e+00,2.484057536750761130e-01,-9.030593113133715377e+00
-7.432791597852019372e+00,2.482309928565946677e-01,-9.031039611527727828e+00
-7.444237567195204797e+00,2.480552783637968162e-01,-9.031498835513399825e+00
-7.455719150313643517e+00,2.478793254524198630e-01,-9.031970665881441818e+00
-7.467237449893263879e+00,2.477028957038847068e-01,-9.032455311248110519e+00
-7.478793598422316613e+00,2.475256314903226951e-01,-9.032952920625017867e+00
-7.490388549575118127e+00,2.473478904396024802e-01,-9.033463464209841476e+00
-7.502023495444563927e+00,2.471691957145658591e-01,-9.033987210223482833e+00
-7.513699359902648034e+00,2.469902625709501365e-01,-9.034524099061297164e+00
-7.525417394646910729e+00,2.468103757530180076e-01,-9.035074339339541183e+00
-7.537178463944701257e+00,2.466306081443754294e-01,-9.035637931058214889e+00
-7.548984117516783776e+00,2.464491716056791404e-01,-9.036215202042864547e+00
-7.560835249432829919e+00,2.462672582298246482e-01,-9.036806152293490157e+00
-7.572732813367156091e+00,2.460852256446806052e-01,-9.037410811612414108e+00
-7.584678418645171227e+00,2.459017625480619529e-01,-9.038029507825182662e+00
-7.596673138150481286e+00,2.457174649864164451e-01,-9.038662300536440597e+00
-7.608717985162047448e+00,2.455326905876127341e-01,-9.039309219548510299e+00
-7.620814151772765221e+00,2.453474393516508201e-01,-9.039970413873003707e+00
-7.632963128098753991e+00,2.451612344413724998e-01,-9.040646121928499923e+00
-7.645166106232909264e+00,2.449740758567777732e-01,-9.041336522528933273e+00
-7.657424516686705651e+00,2.447856059699979880e-01,-9.042041764685915695e+00
-7.669739432343749108e+00,2.445966592460599998e-01,-9.042761848399447189e+00
-7.682111985692290368e+00,2.444072356849638084e-01,-9.043496982285784469e+00
-7.694544084080962243e+00,2.442163816123930076e-01,-9.044247464368151412e+00
-5.358963258275298180e+00,2.808192363410917380e-01,-9.150872216651247726e+00
-5.379019863614348473e+00,2.805126300483671287e-01,-9.148494110533999191e+00
-5.398850090512541833e+00,2.802090039878812888e-01,-9.146158472726153121e+00
-5.418459303387908044e+00,2.799084773689237693e-01,-9.143864409158037887e+00
-5.437853581914214196e+00,2.796118846565214255e-01,-9.141610787341402755e+00
-5.457036621579436364e+00,2.793179145484891990e-01,-9.139397100636767135e+00
-5.476014621266631188e+00,2.790278783470121482e-01,-9.137222246358202682e+00
-5.494791038045195641e+00,2.787404647499052146e-01,-9.135085688063906417e+00
-5.513371474751738610e+00,2.784565082221952537e-01,-9.132986442277239547e+00
-5.531759388455657067e+00,2.781750550895658591e-01,-9.130924002358721481e+00
-5.549959666737822594e+00,2.778965821891752341e-01,-9.128897533843325363e+00
-5.567976243504790368e+00,2.776208511024442771e-01,-9.126906381079958663e+00
-5.585813410290984216e+00,2.773477426200834373e-01,-9.124949828812884078e+00
-5.603475458630827966e+00,2.770776143699613669e-01,-9.123027161786364303e+00
-5.620965726384429040e+00,2.768101087242094138e-01,-9.121137843558596359e+00
-5.638288028249053063e+00,2.765448680549589255e-01,-9.119281248280810104e+00
-5.655446417340544762e+00,2.762822499900785544e-01,-9.117456660697268234e+00
-5.672444469937590661e+00,2.760223737388578513e-01,-9.115663574168490157e+00
-5.689285762318877282e+00,2.757651200920072654e-01,-9.113901303241060958e+00
-5.705972797879485192e+00,2.755094161659208396e-01,-9.112169609496401534e+00
-5.722509391316680016e+00,2.752557387977567771e-01,-9.110467777678774581e+00
-5.738899476537016930e+00,2.750049224525419334e-01,-9.108795122334765182e+00
-5.755146152982024255e+00,2.747567287116972068e-01,-9.107151166627215133e+00
-5.771251328000334802e+00,2.745098462730375388e-01,-9.105535642335222946e+00
-5.787219412335661950e+00,2.742658248573270896e-01,-9.103947774598406539e+00
-5.803052432545928063e+00,2.740233531623808005e-01,-9.102387324998186813e+00
-5.818753845700530114e+00,2.737835040718046287e-01,-9.100853637883471237e+00
-5.834325678357390466e+00,2.735448470741239646e-01,-9.099346534440325485e+00
-5.849771268376616540e+00,2.733082166343656638e-01,-9.097865388819979415e+00
-5.865093357571868005e+00,2.730738511711088279e-01,-9.096409724185274825e+00
-5.880294687756804528e+00,2.728416314750639060e-01,-9.094979123303698287e+00
-5.895376808652190270e+00,2.726101270347562888e-01,-9.093573526570605026e+00
-5.910343534955290856e+00,2.723813644081083396e-01,-9.092192069718645797e+00
-5.925196654805449548e+00,2.721540322929349998e-01,-9.090834633538531051e+00
-5.939938433179167809e+00,2.719281306892362693e-01,-9.089500860402392135e+00
-5.954571611890105309e+00,2.717042556434599021e-01,-9.088190243670748458e+00
-5.969098336705473962e+00,2.714821687370267966e-01,-9.086902485320376144e+00
-5.983520753392485680e+00,2.712615123420683005e-01,-9.085637257525728927e+00
-5.997840650090483727e+00,2.710419288307157615e-01,-9.084394381472872482e+00
-6.012060887822417321e+00,2.708241334587064841e-01,-9.083173320720003829e+00
-6.026183612355498376e+00,2.706081262260404685e-01,-9.081973747441576705e+00
-6.040210134991911950e+00,2.703931918769804099e-01,-9.080795512625979171e+00
-6.053692705640105309e+00,2.693732371955839255e-01,-9.079799071976946578e+00
-6.062789387711791100e+00,2.605293384223905662e-01,-9.080378071496294723e+00
-6.070559628018645348e+00,2.491535535484281638e-01,-9.081467942426012740e+00
-6.078370280274657311e+00,2.376895538001981834e-01,-9.082581088969515548e+00
-6.086202211388854089e+00,2.260965696006742576e-01,-9.083725468346880660e+00
-6.094125158795622887e+00,2.145029893547025779e-01,-9.084875808188723312e+00
-6.102085180291441979e+00,2.028028360038724998e-01,-9.086052880713747726e+00
-6.110098190316466393e+00,1.910224548011747459e-01,-9.087251530120180831e+00
-6.118161923894194665e+00,1.791532626777616599e-01,-9.088473395535753951e+00
-6.126286752232817712e+00,1.672118297248808005e-01,-9.089715198705004440e+00
-6.134473867425231042e+00,1.551969638496366599e-01,-9.090977178046511398e+00
-6.142705209264067712e+00,1.430664649635282615e-01,-9.092267469594286666e+00
-6.151009209164885583e+00,1.308757653861967185e-01,-9.093575404116915450e+00
-6.159358150967864098e+00,1.185604921012846091e-01,-9.094913260171221481e+00
-6.167776234158782067e+00,1.061682096153226951e-01,-9.096271977851198898e+00
-6.176265842923430505e+00,9.369975239333783179e-02,-9.097651318738268600e+00
-6.184808976659087243e+00,8.110982090530072242e-02,-9.099060014912890182e+00
-6.193425364503172936e+00,6.843751579818402320e-02,-9.100490556189821945e+00
-6.202125198849944177e+00,5.570250660476361304e-02,-9.101939247081087814e+00
-6.210886664399413171e+00,4.284828812179242163e-02,-9.103416846225069747e+00
-6.219709165105132165e+00,2.986663490829144507e-02,-9.104924843737887130e+00
-6.228611297616271081e+00,1.679664761123333960e-02,-9.106455848643587814e+00
-6.237594611653594079e+00,3.636776509853945072e-03,-9.108010218570040450e+00
-6.246643133172301354e+00,-9.659350809481992428e-03,-9.109596715400027023e+00
-6.255763657101897302e+00,-2.308279365005816430e-02,-9.111213550994204269e+00
-6.264976150998381677e+00,-3.658682197037066430e-02,-9.112852112481402145e+00
-6.274247415074614587e+00,-5.026823371353472680e-02,-9.114530370662020431e+00
-6.283632106789855065e+00,-6.398516982498492212e-02,-9.116222069690035568e+00
-6.293080039033202233e+00,-7.788330405655230493e-02,-9.117954210469530807e+00
-6.302628405102995934e+00,-9.186631530227984399e-02,-9.119709001014040695e+00
-6.312256462582854333e+00,-1.060011991828950784e-01,-9.121498928496645675e+00
-6.321972556123045983e+00,-1.202734121650728127e-01,-9.123321251103686080e+00
-6.331778950700072350e+00,-1.346855768531831643e-01,-9.125176445672320114e+00
-6.341678686150816979e+00,-1.492372164100679299e-01,-9.127064601609514938e+00
-6.351674563893584313e+00,-1.639297613472017190e-01,-9.128985927531527267e+00
-6.361784703740386071e+00,-1.787138590187105081e-01,-9.130931512543963180e+00
-6.371979839810637536e+00,-1.936953672737153909e-01,-9.132920698354052291e+00
-6.382292754658965173e+00,-2.087758192390474221e-01,-9.134935633370684371e+00
-6.392695553311614098e+00,-2.240615496009858987e-01,-9.136995718905733810e+00
-6.403222687253264489e+00,-2.394440779060396096e-01,-9.139081404635714279e+00
-6.413845188626555505e+00,-2.550395140022310159e-01,-9.141213611790941940e+00
-6.424579508313445153e+00,-2.708018431037935159e-01,-9.143384263942049728e+00
-6.435438342103270593e+00,-2.866964945167573831e-01,-9.145587102601336227e+00
-6.446425504693297448e+00,-3.027194151252778909e-01,-9.147821591326998458e+00
-6.457545108804015221e+00,-3.188663133949312112e-01,-9.150087044665621505e+00
-6.468776113995818200e+00,-3.352373251289400002e-01,-9.152401582429217086e+00
-6.480150468358305993e+00,-3.517146715492280862e-01,-9.154744134375857101e+00
-6.491642661103514733e+00,-3.684228071540864846e-01,-9.157137171456621871e+00
-6.503271586903838219e+00,-3.852980741828950784e-01,-9.159569368789004074e+00
-6.518493540295867028e+00,-3.860314497322114846e-01,-9.159137115905092941e+00
-6.538460142621306481e+00,-3.635049471229585549e-01,-9.154586152264879928e+00
-6.559227771767882409e+00,-3.353109964698823831e-01,-9.149055973717974410e+00
-6.579472250947264733e+00,-3.077762731880220315e-01,-9.143671856353090988e+00
-6.599173433789519372e+00,-2.810903200477632424e-01,-9.138466314503954635e+00
-6.618408180484084191e+00,-2.549288877815278909e-01,-9.133380756804751144e+00
-6.637160397776869836e+00,-2.294560083717378518e-01,-9.128443167636202560e+00
-6.655449188956526818e+00,-2.046483167976411721e-01,-9.123648510405825363e+00
-6.673288948544768395e+00,-1.805081972450288674e-01,-9.118996129462527023e+00
-6.690712012061385217e+00,-1.569214472145112893e-01,-9.114465014169024215e+00
-6.707732088574675622e+00,-1.338794836372407815e-01,-9.110052720734881149e+00
-6.724356360444335046e+00,-1.114168772071870706e-01,-9.105764643380449996e+00
-6.740612990865019860e+00,-8.941990226211871118e-02,-9.101579920480059371e+00
-6.756503916987685265e+00,-6.795483916702593774e-02,-9.097509489486025558e+00
-6.772052950867919030e+00,-4.692322104873980493e-02,-9.093535260388659225e+00
-6.787271313080100121e+00,-2.631169646683062524e-02,-9.089654372165011154e+00
-6.802161238798407616e+00,-6.185830530551328366e-03,-9.085877553651140914e+00
-6.816743008503226342e+00,1.354759842452679663e-02,-9.082187906930254684e+00
-6.831015370497016015e+00,3.278702408370648413e-02,-9.078602657744692550e+00
-6.844997651585845055e+00,5.162674099502240210e-02,-9.075104610154436813e+00
-6.858697585472373071e+00,7.005482822951947242e-02,-9.071695433089541183e+00
-6.872140563735274377e+00,8.827727943954144507e-02,-9.068338529298113571e+00
-6.885327569851187768e+00,1.062383046775785544e-01,-9.065043226907061324e+00
-6.898256800779608788e+00,1.238215556770292380e-01,-9.061829374263094650e+00
-6.910940371164588036e+00,1.410916438728300193e-01,-9.058685229251192794e+00
-6.923385254749564233e+00,1.580492845207182029e-01,-9.055610195824908004e+00
-6.935595549353865685e+00,1.746383300453153709e-01,-9.052613721320437179e+00
-6.947584986397532525e+00,1.909951558738676169e-01,-9.049671606252001510e+00
-6.959354601511267724e+00,2.070036521583524802e-01,-9.046803639361666427e+00
-6.970913905361203255e+00,2.227326026588407615e-01,-9.043997571894930587e+00
-6.982270706155804696e+00,2.382515063911405662e-01,-9.041240857074068771e+00
