4.757196864684000381e+00,-1.756227016448974332e-01,1.188632385015184312e+01
4.741487320785665815e+00,-1.751196086406707486e-01,1.188772779496430942e+01
4.725857550556302300e+00,-1.746245175600051602e-01,1.188910732959895000e+01
4.710306759551807332e+00,-1.741374582052230557e-01,1.189046406045289039e+01
4.694845800464523933e+00,-1.736602336168288907e-01,1.189182013637595858e+01
4.679486125292101839e+00,-1.731948554515838345e-01,1.189320094846056008e+01
4.664182592635096825e+00,-1.727343797683715543e-01,1.189452682071179268e+01
4.648970364869957628e+00,-1.722845584154128751e-01,1.189586612457788561e+01
4.633860465009131957e+00,-1.718474179506301602e-01,1.189724427784970651e+01
4.618796981806066348e+00,-1.714140623807906827e-01,1.189855812545941482e+01
4.603827950082719056e+00,-1.709925234317779263e-01,1.189990349477832154e+01
4.588911680580077146e+00,-1.705760657787322720e-01,1.190120188628355713e+01
4.574086148061867974e+00,-1.701712161302566251e-01,1.190253226256117003e+01
4.559338933956237128e+00,-1.697761863470077237e-01,1.190387446043652986e+01
4.544640994042914883e+00,-1.693861037492751798e-01,1.190517165329413274e+01
4.530020309303572468e+00,-1.690059900283813199e-01,1.190648487475628059e+01
4.515461353286135626e+00,-1.686333417892455777e-01,1.190778554213499518e+01
4.500977438490608051e+00,-1.682707816362380704e-01,1.190910605296770441e+01
4.486539909164295459e+00,-1.679132431745528897e-01,1.191038677382115551e+01
4.472175652662065737e+00,-1.675658971071243009e-01,1.191169086023497670e+01
4.457859346638454845e+00,-1.672241836786269864e-01,1.191296433473901573e+01
4.443597379923906132e+00,-1.668895035982131680e-01,1.191422468812229774e+01
4.429401518457837028e+00,-1.665643006563186368e-01,1.191550342037410815e+01
4.415255146721227320e+00,-1.662455946207046231e-01,1.191676456308339382e+01
4.401164923278901853e+00,-1.659348458051681241e-01,1.191802727971248643e+01
4.387122038200382157e+00,-1.656305193901061734e-01,1.191927350136575292e+01
4.373132824169330135e+00,-1.653341203927993497e-01,1.192052247804052101e+01
4.359195295510550849e+00,-1.650454252958297452e-01,1.192177264385727575e+01
4.345294053694684244e+00,-1.647614240646362027e-01,1.192298735838383195e+01
4.331446109217755414e+00,-1.644859015941619595e-01,1.192421425916670330e+01
4.317649426697431458e+00,-1.642186939716338834e-01,1.192545257846024143e+01
4.303892004537886784e+00,-1.639574021100997647e-01,1.192667288479558607e+01
4.290173796721749255e+00,-1.637021601200103482e-01,1.192787763241086552e+01
4.276509469050592038e+00,-1.634566336870193204e-01,1.192911351159732192e+01
4.262882274323133380e+00,-1.632171571254729947e-01,1.193033551855619656e+01
4.249293577780341558e+00,-1.629843413829803189e-01,1.193155175060943662e+01
4.235733829314646037e+00,-1.627559959888457974e-01,1.193273543948426507e+01
4.222222254383804163e+00,-1.625370979309081754e-01,1.193395011818838647e+01
4.208739349546041453e+00,-1.623230725526809415e-01,1.193513843257691853e+01
4.195279258060154781e+00,-1.621125042438506803e-01,1.193628292499893284e+01
4.181856656797005911e+00,-1.619094312191009244e-01,1.193743525405847272e+01
4.168464654285243931e+00,-1.617122143507003507e-01,1.193857570763491438e+01
4.155103234895705100e+00,-1.615211963653564176e-01,1.193970882505586140e+01
4.141773277797489605e+00,-1.613367795944213590e-01,1.194084021626703418e+01
4.128483906932624237e+00,-1.611619889736175260e-01,1.194200949608860185e+01
4.115257313966991681e+00,-1.610040068626403531e-01,1.194330976067938721e+01
4.102056589916001528e+00,-1.608524918556213101e-01,1.194460891218487930e+01
4.088879399274726545e+00,-1.607070565223693570e-01,1.194590242509664435e+01
4.075724072119728980e+00,-1.605674922466277799e-01,1.194718795197035988e+01
4.062588901699719202e+00,-1.604334861040115079e-01,1.194846202134666413e+01
4.049471651924040572e+00,-1.603045314550399503e-01,1.194971851144940800e+01
4.037323013396383331e+00,-1.605139970779418668e-01,1.195528088120134313e+01
4.027460251108800904e+00,-1.615657955408096036e-01,1.197170964414585015e+01
4.017568542874482063e+00,-1.626753509044646939e-01,1.198884590620245305e+01
4.007537192649097690e+00,-1.638054549694061002e-01,1.200620711001417007e+01
3.997372201874948239e+00,-1.649604737758636197e-01,1.202384870052604882e+01
3.987054229981055187e+00,-1.661348342895507535e-01,1.204169784329806348e+01
3.976593207502276073e+00,-1.673346012830733975e-01,1.205983266240433238e+01
3.965970801899339371e+00,-1.685543954372405728e-01,1.207818214888932573e+01
3.955196808404852327e+00,-1.698006540536880216e-01,1.209682917236284538e+01
3.944270376567495795e+00,-1.710760146379470548e-01,1.211580797248562469e+01
3.933165589957139829e+00,-1.723710894584655484e-01,1.213499434707689950e+01
3.921892279764139566e+00,-1.736932247877120694e-01,1.215448345350616677e+01
3.910448283693112259e+00,-1.750445514917373380e-01,1.217430229208262560e+01
3.898818064083127588e+00,-1.764202415943145474e-01,1.219438643775018960e+01
3.887007153013223970e+00,-1.778267472982406339e-01,1.221481945608837272e+01
3.875001118458462734e+00,-1.792597919702529630e-01,1.223554404171954779e+01
3.862804645596765951e+00,-1.807262301445007047e-01,1.225664878193292751e+01
3.850406177446669354e+00,-1.822235733270644864e-01,1.227809967923360190e+01
3.837791036127646827e+00,-1.837464869022369107e-01,1.229982536470689425e+01
3.824972575355104709e+00,-1.853094846010207852e-01,1.232201538628603643e+01
3.811922297059277653e+00,-1.868972033262252530e-01,1.234446520463417230e+01
3.798654761085278331e+00,-1.885271370410918912e-01,1.236740503843355121e+01
3.785148593010675633e+00,-1.901886910200118741e-01,1.239069264692619754e+01
3.771401392273351583e+00,-1.918867379426955899e-01,1.241439059017575275e+01
3.757408118054017088e+00,-1.936250627040862760e-01,1.243854721558738419e+01
3.743155718257970221e+00,-1.953994035720824918e-01,1.246310450249483992e+01
3.728637496761983527e+00,-1.972116082906722745e-01,1.248808420122072604e+01
3.713850858144264855e+00,-1.990715563297271451e-01,1.251361546857900997e+01
3.698778504246803323e+00,-2.009684145450591763e-01,1.253955236494558889e+01
3.683415457046061547e+00,-2.029092907905578336e-01,1.256598682852583693e+01
4.869115232735869547e+00,-1.218696236610412459e-01,1.052999786090522605e+01
4.864628095279837083e+00,-1.218282505869865279e-01,1.053767428817119622e+01
4.860143711914673759e+00,-1.217914894223213057e-01,1.054534573238275641e+01
4.855662164085657651e+00,-1.217593476176261763e-01,1.055301300318028979e+01
4.851182699056298731e+00,-1.217317953705787520e-01,1.056067644762185154e+01
4.846704871532327985e+00,-1.217088177800178389e-01,1.056833659549711868e+01
4.842228661724881533e+00,-1.216904371976852278e-01,1.057599419338794000e+01
4.837753629014420298e+00,-1.216766461730003218e-01,1.058364976302899052e+01
4.833279748002400567e+00,-1.216674596071243147e-01,1.059130406066811858e+01
4.828806061614146827e+00,-1.216628327965736250e-01,1.059895731046828615e+01
4.824332751594138990e+00,-1.216628104448318343e-01,1.060661038673942969e+01
4.819859173919599726e+00,-1.216673478484153609e-01,1.061426368671013876e+01
4.815385198218056217e+00,-1.216764822602271895e-01,1.062191791001371755e+01
4.810910489778847499e+00,-1.216902062296867232e-01,1.062957363338838590e+01
4.806434099941808924e+00,-1.217084750533103804e-01,1.063723106649810646e+01
4.801956712882375022e+00,-1.217313706874847273e-01,1.064489140538952583e+01
4.797477581473728492e+00,-1.217588856816291670e-01,1.065255498745469964e+01
4.792995864834473707e+00,-1.217909529805183272e-01,1.066022207413912426e+01
4.788511633190539740e+00,-1.218276321887969832e-01,1.066789349441519263e+01
4.784024544351698438e+00,-1.218689158558845381e-01,1.067556983790913350e+01
4.779534456726123537e+00,-1.219148486852645735e-01,1.068325182358625369e+01
4.775040540651773746e+00,-1.219653785228729109e-01,1.069093969356005047e+01
4.770542941410234938e+00,-1.220205649733543257e-01,1.069863438496947694e+01
4.766041031807757733e+00,-1.220803931355476241e-01,1.070633626604511512e+01
4.761534743438286199e+00,-1.221449002623557906e-01,1.071404616714083602e+01
4.757023066610182482e+00,-1.222140416502952437e-01,1.072176416558903611e+01
4.752506322894845425e+00,-1.222878843545913558e-01,1.072949136975377016e+01
4.747984072607682293e+00,-1.223664432764053206e-01,1.073722829975871562e+01
4.743455780439632008e+00,-1.224497035145759444e-01,1.074497540300300713e+01
4.738921168036773324e+00,-1.225377023220062117e-01,1.075273339661143268e+01
4.734379715049179538e+00,-1.226304247975349287e-01,1.076050270220711269e+01
4.729831341851442161e+00,-1.227279305458068709e-01,1.076828416947593325e+01
4.725275490695795888e+00,-1.228302195668220381e-01,1.077607828448103611e+01
4.720712104395532016e+00,-1.229373291134834151e-01,1.078388585824428958e+01
4.716140433953945887e+00,-1.230492368340492110e-01,1.079170723137974441e+01
4.711560193537549068e+00,-1.231660023331642012e-01,1.079954313390019749e+01
4.706971222855596437e+00,-1.232876479625701766e-01,1.080739431699097075e+01
4.702372669807337147e+00,-1.234141439199447493e-01,1.081526106142957566e+01
4.697765109179531606e+00,-1.235456168651580672e-01,1.082314475174973367e+01
4.693147145042871671e+00,-1.236819848418235640e-01,1.083104518082965129e+01
4.688518549790503087e+00,-1.238233074545860152e-01,1.083896321584669309e+01
4.683879905688744572e+00,-1.239696890115737776e-01,1.084690022844658053e+01
4.679229411871709488e+00,-1.241210326552390913e-01,1.085485575927334168e+01
4.674567973267059529e+00,-1.242774948477744917e-01,1.086283157397492438e+01
4.669893922031210565e+00,-1.244389712810516219e-01,1.087082722147988179e+01
4.665207971842889378e+00,-1.246055960655212264e-01,1.087884432198706186e+01
4.660509306389270634e+00,-1.247773990035056929e-01,1.088688333210256332e+01
4.655797199112356566e+00,-1.249543428421020369e-01,1.089494455377642090e+01
4.651071878088940181e+00,-1.251365542411803922e-01,1.090302925647275600e+01
4.646332541965337626e+00,-1.253240108489989957e-01,1.091113787102164956e+01
4.641578771885756183e+00,-1.255167573690414151e-01,1.091927111915137871e+01
4.636810002622857141e+00,-1.257148236036300382e-01,1.092742949981309231e+01
4.632025931774107264e+00,-1.259182691574096402e-01,1.093561400906420644e+01
4.627226522981598755e+00,-1.261271536350249967e-01,1.094382565953118913e+01
4.622410710456932748e+00,-1.263414621353149137e-01,1.095206462520646440e+01
4.617578559336326549e+00,-1.265613138675689420e-01,1.096033221882165165e+01
4.612729018790526325e+00,-1.267866641283035001e-01,1.096862858859316603e+01
4.607862153955741391e+00,-1.270176321268081387e-01,1.097695504725262694e+01
4.602977707306849631e+00,-1.272542774677276334e-01,1.098531251352942206e+01
4.598074288784203212e+00,-1.274965703487395963e-01,1.099370100768236114e+01
4.593152404248537657e+00,-1.277446448802947720e-01,1.100212227050582570e+01
4.588210914725687317e+00,-1.279984861612319669e-01,1.101057636460367561e+01
4.583249634266386430e+00,-1.282581835985183438e-01,1.101906456036247661e+01
4.578268069219157965e+00,-1.285237967967986783e-01,1.102758770839055025e+01
4.573265403271182805e+00,-1.287953555583953580e-01,1.103614626529398990e+01
4.568241626762998386e+00,-1.290729492902755460e-01,1.104474167268446472e+01
4.563195863545244535e+00,-1.293566226959228238e-01,1.105337449027210539e+01
4.558127458635771845e+00,-1.296464055776595792e-01,1.106204537166412294e+01
4.553036548746657530e+00,-1.299424469470977506e-01,1.107075598124930238e+01
4.547922139665362629e+00,-1.302447468042373380e-01,1.107950684467725111e+01
4.542783297015894561e+00,-1.305533498525619229e-01,1.108829838449352856e+01
4.537619951302247046e+00,-1.308683604001998624e-01,1.109713214541383763e+01
4.532431504158997981e+00,-1.311898827552795133e-01,1.110600915847857273e+01
4.527217476893804715e+00,-1.315179318189620694e-01,1.111493024852004474e+01
4.521976828806812065e+00,-1.318526118993758878e-01,1.112389625878449628e+01
4.516709433785296213e+00,-1.321939677000045499e-01,1.113290835655444866e+01
4.517717334424238729e+00,-1.334383636713027677e-01,1.115054289379157737e+01
4.537634173936612392e+00,-1.374201625585555753e-01,1.119454620343949891e+01
4.559004059791941010e+00,-1.416852474212646207e-01,1.124157512527522229e+01
4.581720249931149347e+00,-1.462257802486419400e-01,1.129158535369835903e+01
4.605839871129353114e+00,-1.510578989982604703e-01,1.134476344735556452e+01
4.631838022731790794e+00,-1.562603712081908902e-01,1.140191095304954061e+01
4.659740813366676448e+00,-1.618476063013076505e-01,1.146320945296917237e+01
4.689506853255325680e+00,-1.678244173526763638e-01,1.152874760273407162e+01
4.721444224320110905e+00,-1.742492169141769132e-01,1.159914449673638970e+01
4.755947817073066020e+00,-1.811960488557815274e-01,1.167518290528808933e+01
4.792744466777695500e+00,-1.886379569768905362e-01,1.175664882026121916e+01
4.831851845719207006e+00,-1.965928226709365567e-01,1.184377137221096632e+01
4.837502804574376647e+00,-1.994078159332275113e-01,1.187973721656919501e+01
4.821396439932033928e+00,-1.988037228584289273e-01,1.188131953269518526e+01
4.805305873458472377e+00,-1.981976181268691739e-01,1.188275967969958558e+01
4.789288909970912833e+00,-1.975987702608108243e-01,1.188415184997835183e+01
4.773402004744554006e+00,-1.970165371894836148e-01,1.188559303630554709e+01
4.757571990390554006e+00,-1.964391320943832120e-01,1.188696469361271646e+01
4.741856713183644878e+00,-1.958763152360915860e-01,1.188836806769809229e+01
4.726221914804936475e+00,-1.953225135803222379e-01,1.188974771650606144e+01
4.710665743071480449e+00,-1.947776526212691983e-01,1.189110421908312176e+01
4.695199755834851274e+00,-1.942438185214996060e-01,1.189246040917952030e+01
4.679834440328490608e+00,-1.937231272459029874e-01,1.189384001534375201e+01
4.664522709055491489e+00,-1.932075023651122769e-01,1.189516030253771461e+01
4.649302695090515414e+00,-1.927038282155990323e-01,1.189649426069271243e+01
4.634187008524214058e+00,-1.922146975994109830e-01,1.189787098526703879e+01
4.619118719948925644e+00,-1.917299330234527310e-01,1.189918480067854034e+01
4.604145305398919419e+00,-1.912584900856017789e-01,1.190053107217523376e+01
4.589227980037206223e+00,-1.907933354377746304e-01,1.190183698289580150e+01
4.574402236751047290e+00,-1.903413534164428433e-01,1.190317674714073348e+01
4.559652562907532847e+00,-1.898999363183974942e-01,1.190452413335614423e+01
4.544950153632554724e+00,-1.894636452198028287e-01,1.190582190251036998e+01
4.530324018198307101e+00,-1.890383511781692227e-01,1.190713430376985293e+01
4.515760256808647455e+00,-1.886214911937713345e-01,1.190843493895036076e+01
4.501271959186460059e+00,-1.882159858942031583e-01,1.190975635196085669e+01
4.486829331744853100e+00,-1.878160089254378995e-01,1.191103659506185153e+01
4.472460372974441434e+00,-1.874274462461471280e-01,1.191234070911400877e+01
4.458139175043615232e+00,-1.870451718568801602e-01,1.191361382553867898e+01
4.443872782234909558e+00,-1.866708397865295133e-01,1.191487491815916755e+01
4.429672175233162257e+00,-1.863070428371429166e-01,1.191615351510873211e+01
4.415521307436448772e+00,-1.859505325555801114e-01,1.191741480512943774e+01
4.401426468260934755e+00,-1.856029480695724210e-01,1.191867787527803202e+01
4.387378897483277029e+00,-1.852625012397765836e-01,1.191992385852501179e+01
4.373385127555579288e+00,-1.849309504032134732e-01,1.192117308561524069e+01
4.359443275906681237e+00,-1.846080720424651822e-01,1.192242405050574305e+01
4.345537218589188733e+00,-1.842903196811675748e-01,1.192363803780426856e+01
4.331684967691187715e+00,-1.839821487665176114e-01,1.192486547161626653e+01
4.317884038586334405e+00,-1.836832761764526090e-01,1.192610422083489397e+01
4.304119987380070178e+00,-1.833904534578323087e-01,1.192731861254204340e+01
4.290395789400258231e+00,-1.831045448780059537e-01,1.192851919460803245e+01
4.276726955539590591e+00,-1.828298270702361783e-01,1.192975452607608489e+01
4.263095687297591141e+00,-1.825620383024215421e-01,1.193097761472237650e+01
4.249502744170269963e+00,-1.823016256093978604e-01,1.193219427670070409e+01
4.235937910468561718e+00,-1.820459663867950162e-01,1.193337556567419000e+01
4.222419513162207316e+00,-1.818003952503204068e-01,1.193458228792814246e+01
4.208923293074561478e+00,-1.815583556890487393e-01,1.193574082195796215e+01
4.195457430512358421e+00,-1.813222914934158048e-01,1.193687934635488013e+01
4.182030778743354382e+00,-1.810950785875320157e-01,1.193803152998276929e+01
4.168634942063220272e+00,-1.808745414018630704e-01,1.193917265283047158e+01
4.155269678375904441e+00,-1.806608736515044888e-01,1.194030574449284998e+01
4.141935843841819676e+00,-1.804545968770980557e-01,1.194143764203470148e+01
4.128642741912620373e+00,-1.802591234445571622e-01,1.194260765096407084e+01
4.115412391184202434e+00,-1.800824254751205167e-01,1.194390821567745320e+01
4.102207746429848534e+00,-1.799129545688628873e-01,1.194520771057304032e+01
4.089026548550214635e+00,-1.797502636909484586e-01,1.194650124099373656e+01
4.075867480201479154e+00,-1.795941293239593228e-01,1.194778680194542808e+01
4.062728535449639189e+00,-1.794442534446716031e-01,1.194906143748895389e+01
4.049611878609407967e+00,-1.793016791343688687e-01,1.195033756793637991e+01
4.037447279005156986e+00,-1.795311570167541226e-01,1.195584574200091055e+01
4.027579993019132054e+00,-1.807067990303039273e-01,1.197226994998865557e+01
4.017685635407895361e+00,-1.819478124380111417e-01,1.198941101466760450e+01
4.007651679073090278e+00,-1.832118481397628507e-01,1.200677718404224592e+01
3.997484038922022087e+00,-1.845036894083022794e-01,1.202442357717646715e+01
3.987163471048113195e+00,-1.858172714710235318e-01,1.204227838054123012e+01
3.976699749485277380e+00,-1.871592253446578702e-01,1.206041880040370806e+01
3.966074731333274705e+00,-1.885236352682113370e-01,1.207877421352607072e+01
3.955297902512601382e+00,-1.899176239967345914e-01,1.209742731000849503e+01
3.944368268950277034e+00,-1.913439333438873013e-01,1.211640948955587938e+01
3.933260560478737844e+00,-1.927925050258636197e-01,1.213560161127489678e+01
3.921984344993604488e+00,-1.942712962627410611e-01,1.215509619878728387e+01
3.910537410492348265e+00,-1.957827806472778043e-01,1.217492105053610629e+01
3.898904149348100034e+00,-1.973214894533157071e-01,1.219501114953949106e+01
3.887090033803348277e+00,-1.988946795463561734e-01,1.221545016448099119e+01
3.875080881308732295e+00,-2.004975676536559781e-01,1.223618107259664534e+01
3.862881214101592242e+00,-2.021378278732299527e-01,1.225729250444316598e+01
3.850479594873550404e+00,-2.038126438856124600e-01,1.227875025631756145e+01
3.837861053001006439e+00,-2.055160552263259610e-01,1.230048251375090906e+01
3.825039294778981969e+00,-2.072642892599105557e-01,1.232267916712665112e+01
3.811985316746921093e+00,-2.090401649475097379e-01,1.234513607295503590e+01
3.798714417047254877e+00,-2.108633518218993863e-01,1.236808360272949514e+01
3.785204679038908004e+00,-2.127218693494796475e-01,1.239137878752413968e+01
3.771453982023550644e+00,-2.146213799715041837e-01,1.241508655510574144e+01
3.757457001628339732e+00,-2.165657877922057828e-01,1.243925122907207026e+01
3.743200755724525486e+00,-2.185503691434859952e-01,1.246381538068265016e+01
3.728678448774599197e+00,-2.205773293972015103e-01,1.248880235652782034e+01
3.713887811237931658e+00,-2.226576805114745816e-01,1.251434122688655037e+01
3.698811392145340271e+00,-2.247793972492217740e-01,1.254028679043205941e+01
3.683444259490658901e+00,-2.269502431154250821e-01,1.256672853113159150e+01
4.868798128368590383e+00,-1.347353905439376553e-01,1.052983652795484559e+01
4.864312086669243307e+00,-1.346896439790725430e-01,1.053751106712810071e+01
4.859829113982558013e+00,-1.346490234136581143e-01,1.054518079309056588e+01
4.855348556936297300e+00,-1.346134692430495938e-01,1.055284611918084181e+01
4.850870292637553760e+00,-1.345830410718917569e-01,1.056050773214422733e+01
4.846393662104416578e+00,-1.345576345920562467e-01,1.056816605498532269e+01
4.841918546183763716e+00,-1.345373094081878385e-01,1.057582176800542761e+01
4.837444605490203386e+00,-1.345220655202865323e-01,1.058347545599776396e+01
4.832971921001544935e+00,-1.345119327306747159e-01,1.059112792940821812e+01
4.828499327097665272e+00,-1.345068067312240323e-01,1.059877929675417363e+01
4.824027109562032400e+00,-1.345067769289016446e-01,1.060643049057110154e+01
4.819554522202775360e+00,-1.345117837190627774e-01,1.061408184664005283e+01
4.815081639453078211e+00,-1.345218867063522061e-01,1.062173418668391633e+01
4.810607920861678544e+00,-1.345370560884475430e-01,1.062938796696232657e+01
4.806132728015473532e+00,-1.345572620630264005e-01,1.063704357503787179e+01
4.801656536076979620e+00,-1.345825791358947476e-01,1.064470209211712159e+01
4.797177893020135642e+00,-1.346129328012466153e-01,1.065236340773831358e+01
4.792697675204262708e+00,-1.346484273672103604e-01,1.066002886178619846e+01
4.788214638681269619e+00,-1.346889883279800137e-01,1.066769846025009549e+01
4.783728546234859103e+00,-1.347346305847167691e-01,1.067537284937077224e+01
4.779239661209793155e+00,-1.347853988409042081e-01,1.068305300034771754e+01
4.774746642163618660e+00,-1.348412483930587491e-01,1.069073884966770649e+01
4.770250241782804324e+00,-1.349022835493087491e-01,1.069843171282095895e+01
4.765749622925739892e+00,-1.349684447050094327e-01,1.070613184480897218e+01
4.761244147179323427e+00,-1.350397318601607999e-01,1.071383963319433263e+01
4.756733665472162365e+00,-1.351161748170852384e-01,1.072155580983035961e+01
4.752218219981803493e+00,-1.351978480815887174e-01,1.072928125201946337e+01
4.747696981046206410e+00,-1.352846771478652677e-01,1.073701620187513761e+01
4.743169700229721286e+00,-1.353767216205596646e-01,1.074476132497015612e+01
4.738636297906939632e+00,-1.354740113019942960e-01,1.075251747099040145e+01
4.734096047519854800e+00,-1.355765461921691617e-01,1.076028494188590656e+01
4.729548876922626377e+00,-1.356843560934066495e-01,1.076806457445454868e+01
4.724994243326623433e+00,-1.357974410057067594e-01,1.077585682898346420e+01
4.720431868377927387e+00,-1.359158456325530728e-01,1.078366242259744823e+01
4.715861312391945503e+00,-1.360395699739455899e-01,1.079148187542017112e+01
4.711282105765818073e+00,-1.361686438322066983e-01,1.079931575912733877e+01
4.706694440788412592e+00,-1.363031566143035611e-01,1.080716516735447819e+01
4.702097208403839268e+00,-1.364430189132690152e-01,1.081503011115343860e+01
4.697490402172456392e+00,-1.365883350372314176e-01,1.082291155159866314e+01
4.692873824405678462e+00,-1.367391347885131558e-01,1.083081030431550218e+01
4.688246366047618352e+00,-1.368953734636306485e-01,1.083872638035580138e+01
4.683608579446325137e+00,-1.370571851730346402e-01,1.084666120291729641e+01
4.678959398813403503e+00,-1.372245252132415494e-01,1.085461494599242016e+01
4.674299008958158197e+00,-1.373974978923797330e-01,1.086258871610470678e+01
4.669626477114505292e+00,-1.375760585069656095e-01,1.087058269553110712e+01
4.664941369467507926e+00,-1.377602517604827603e-01,1.087859763177590722e+01
4.660243958971375555e+00,-1.379501819610595426e-01,1.088663471697519824e+01
4.655533018507038712e+00,-1.381458193063735684e-01,1.089469392812029369e+01
4.650808731273892604e+00,-1.383472532033920011e-01,1.090277661200333981e+01
4.646070738252676691e+00,-1.385545134544372281e-01,1.091088338724857465e+01
4.641317973655003648e+00,-1.387675851583480557e-01,1.091901442784842580e+01
4.636550532535355096e+00,-1.389865875244140347e-01,1.092717099498248956e+01
4.631767731603227745e+00,-1.392115056514739713e-01,1.093535355354138616e+01
4.626969401478392641e+00,-1.394424438476562222e-01,1.094356310786705144e+01
4.622154843911210342e+00,-1.396793872117995938e-01,1.095180014862611628e+01
4.617323786417419029e+00,-1.399224400520324429e-01,1.096006562032397724e+01
4.612475618892274198e+00,-1.401716023683547696e-01,1.096836009923981337e+01
4.607610023974109126e+00,-1.404269635677337369e-01,1.097668460720705319e+01
4.602726567847991390e+00,-1.406885832548141202e-01,1.098503989172998097e+01
4.597824625450042113e+00,-1.409564763307571134e-01,1.099342655486378462e+01
4.592903703128786930e+00,-1.412307024002074918e-01,1.100184544721678748e+01
4.587963556708324120e+00,-1.415113657712936124e-01,1.101029770201097868e+01
4.583003664228815666e+00,-1.417984962463378629e-01,1.101878398113809254e+01
4.578023222726670838e+00,-1.420921534299850186e-01,1.102730495569682034e+01
4.573021710242049842e+00,-1.423923522233962735e-01,1.103586128757889639e+01
4.567999160382989032e+00,-1.426992565393447598e-01,1.104445458133656643e+01
4.562954623814357902e+00,-1.430128812789916715e-01,1.105308528529140588e+01
4.557887871319390882e+00,-1.433333009481429776e-01,1.106175450688938966e+01
4.552797865418055423e+00,-1.436605453491210660e-01,1.107046260883954147e+01
4.547684859275690883e+00,-1.439947932958602628e-01,1.107921152985979063e+01
4.542547346379382844e+00,-1.443360000848769864e-01,1.108800101587980791e+01
4.537385257233131242e+00,-1.446842700242995938e-01,1.109683261161529444e+01
4.532198272865352706e+00,-1.450397372245788297e-01,1.110570757916829265e+01
4.526985325877744160e+00,-1.454024165868758878e-01,1.111462633279983692e+01
4.521746067380457035e+00,-1.457724124193191251e-01,1.112359018616398920e+01
4.516479928926334431e+00,-1.461498290300368985e-01,1.113260011874912081e+01
4.517403016049666320e+00,-1.475122869014739713e-01,1.115011527877573982e+01
4.537342411467822245e+00,-1.519186943769454678e-01,1.119414408349021706e+01
4.558704172763031082e+00,-1.566334813833236417e-01,1.124115636791256279e+01
4.581408006916807274e+00,-1.616522073745727262e-01,1.129114371287832341e+01
4.605514939338831937e+00,-1.669932603836059293e-01,1.134429783404609360e+01
4.631500611592993089e+00,-1.727438420057296475e-01,1.140142100638650291e+01
4.659392170257473431e+00,-1.789200752973556241e-01,1.146269658602089869e+01
4.689146206270362605e+00,-1.855269521474837979e-01,1.152821005813713917e+01
4.721070465543466099e+00,-1.926289945840835294e-01,1.159857990863253896e+01
4.755538308623837196e+00,-2.003044039011001309e-01,1.167455594508919958e+01
4.792227758617683797e+00,-2.085149139165878018e-01,1.175584724602950715e+01
4.831310424648449064e+00,-2.173065692186355313e-01,1.184291975778151595e+01
4.837226703580796539e+00,-2.204651087522506436e-01,1.187929718566160453e+01
4.821129625681505715e+00,-2.197982072830199918e-01,1.188088819928496065e+01
4.805041965439963647e+00,-2.191280275583266934e-01,1.188232713848922018e+01
4.789028580205560992e+00,-2.184659391641616544e-01,1.188371931795750669e+01
4.773145020325827659e+00,-2.178221940994262418e-01,1.188515996481593007e+01
4.757317852367306088e+00,-2.171837389469146451e-01,1.188653051742699773e+01
4.741606505993169129e+00,-2.165615409612655362e-01,1.188793424315210601e+01
4.725974494173392770e+00,-2.159491926431655606e-01,1.188931289036801076e+01
4.710421331775998866e+00,-2.153467237949371060e-01,1.189066824498147312e+01
4.694958949490977140e+00,-2.147565782070159635e-01,1.189202487325259128e+01
4.679596626751630239e+00,-2.141808420419692716e-01,1.189340359749784604e+01
4.664288370627746261e+00,-2.136107981204986295e-01,1.189472383404478606e+01
4.649069143727341036e+00,-2.130534201860427579e-01,1.189605287359411889e+01
4.633954976083293431e+00,-2.125122696161269864e-01,1.189742579344839868e+01
4.618889913181547513e+00,-2.119763195514678678e-01,1.189873927559921185e+01
4.603920309791225129e+00,-2.114551812410354337e-01,1.190008610494371055e+01
4.589010252359274844e+00,-2.109417319297790250e-01,1.190139967937137655e+01
4.574188709640272243e+00,-2.104422599077224454e-01,1.190274146792934928e+01
4.559441985296274424e+00,-2.099541574716567716e-01,1.190408780928520116e+01
4.544742871660786498e+00,-2.094718366861343106e-01,1.190538583710452158e+01
4.530119728993550865e+00,-2.090015709400176724e-01,1.190669735644502580e+01
4.515559160139343220e+00,-2.085407376289367398e-01,1.190799819045408725e+01
4.501073562541096251e+00,-2.080923020839690885e-01,1.190931827599135673e+01
4.486634247308025181e+00,-2.076501101255416593e-01,1.191059851171282347e+01
4.472268161631540728e+00,-2.072204798460006436e-01,1.191190195005408192e+01
4.457950069701174023e+00,-2.067978531122207364e-01,1.191317493942614014e+01
4.443686609822939282e+00,-2.063839286565780362e-01,1.191443525323168906e+01
4.429489195356641318e+00,-2.059817761182784757e-01,1.191571404900980546e+01
4.415341140817313104e+00,-2.055875808000564298e-01,1.191697476642364961e+01
4.401249380943806244e+00,-2.052032649517059049e-01,1.191823728053443077e+01
4.387204726527574650e+00,-2.048268318176269254e-01,1.191948275101109189e+01
4.373214019332835711e+00,-2.044602781534194669e-01,1.192073168810812689e+01
4.359274894406331313e+00,-2.041032314300536832e-01,1.192198175451060749e+01
4.345371986356791894e+00,-2.037519514560699185e-01,1.192319577769710115e+01
4.331522651820215231e+00,-2.034112066030502042e-01,1.192442269873878047e+01
4.317724562671198640e+00,-2.030807882547378262e-01,1.192566130433575111e+01
4.303963254756373757e+00,-2.027569562196731290e-01,1.192687453151025601e+01
4.290241437358980114e+00,-2.024406641721725186e-01,1.192807291156356797e+01
4.276574691337662770e+00,-2.021367102861404141e-01,1.192930559546469560e+01
4.262946382724583039e+00,-2.018406242132186612e-01,1.193052833428124870e+01
4.249356252854648908e+00,-2.015526741743087491e-01,1.193174442365271659e+01
4.235792062595855612e+00,-2.012692987918853482e-01,1.193291795406470079e+01
4.222271689673931405e+00,-2.009962350130080899e-01,1.193410836844131317e+01
4.208778575586742399e+00,-2.007286399602889737e-01,1.193526677541852088e+01
4.195315542850972079e+00,-2.004676014184951505e-01,1.193640446116395992e+01
4.181892186721457350e+00,-2.002164572477340421e-01,1.193755690345694376e+01
4.168499326239291314e+00,-1.999725848436355313e-01,1.193869741043028654e+01
4.155137211819927678e+00,-1.997363716363906583e-01,1.193983053798063665e+01
4.141806440018803492e+00,-1.995083391666412076e-01,1.194096214552929425e+01
4.128516400822565657e+00,-1.992922127246856412e-01,1.194213186446546970e+01
4.115289009723070990e+00,-1.990968436002731046e-01,1.194343207934911533e+01
4.102087297899187135e+00,-1.989094465970992764e-01,1.194473079542976279e+01
4.088909265856552899e+00,-1.987295746803283414e-01,1.194602409569380974e+01
4.075753097300195193e+00,-1.985569596290588101e-01,1.194730940991980361e+01
4.062617431618798847e+00,-1.983913332223891934e-01,1.194858457017304509e+01
4.049504323583396292e+00,-1.982339471578597745e-01,1.194986289800349866e+01
4.037337793441066580e+00,-1.984855979681014737e-01,1.195534803666958013e+01
4.027471819229329952e+00,-1.997849494218826016e-01,1.197176404698121743e+01
4.017580001451331206e+00,-2.011570036411285123e-01,1.198890121027572420e+01
4.007548481845724098e+00,-2.025544941425323209e-01,1.200626341842938061e+01
3.997383338260396712e+00,-2.039827555418014249e-01,1.202390574723857952e+01
3.987065180417235233e+00,-2.054349929094314298e-01,1.204175616039715457e+01
3.976604145059173590e+00,-2.069187164306640347e-01,1.205989290165231509e+01
3.965981786413496302e+00,-2.084271907806396207e-01,1.207824420718215919e+01
3.955207600530100009e+00,-2.099684178829192838e-01,1.209689346211668237e+01
3.944280556508150681e+00,-2.115452885627746304e-01,1.211587094214576155e+01
3.933175600517569315e+00,-2.131467759609222135e-01,1.213505832107897930e+01
3.921902131073752074e+00,-2.147817760705947598e-01,1.215454912688000988e+01
3.910457922355003113e+00,-2.164527922868728360e-01,1.217436880685782796e+01
3.898827630029195745e+00,-2.181540578603744229e-01,1.219445497777832088e+01
3.887016300103493194e+00,-2.198932915925979337e-01,1.221488871784477581e+01
3.875009986624830205e+00,-2.216654717922210416e-01,1.223561520905579414e+01
3.862813381210762564e+00,-2.234789431095123013e-01,1.225672207762614185e+01
3.850414677404260466e+00,-2.253306210041045865e-01,1.227817504344724142e+01
3.837799360265373494e+00,-2.272139340639114102e-01,1.229990269433691630e+01
3.824980577301431595e+00,-2.291467636823653897e-01,1.232209445855531982e+01
3.811929857141120870e+00,-2.311101704835891446e-01,1.234454622575079696e+01
3.798662068941667691e+00,-2.331258505582809171e-01,1.236748839411522027e+01
3.785155632072565446e+00,-2.351806461811065396e-01,1.239077860321753199e+01
3.771408392697393808e+00,-2.372808605432510098e-01,1.241448231291375137e+01
3.757414680303336141e+00,-2.394306510686874112e-01,1.243864254327699115e+01
3.743161871780897876e+00,-2.416248172521590909e-01,1.246320124694254439e+01
3.728643018781394147e+00,-2.438657879829406461e-01,1.248818250879806513e+01
3.713855971437282300e+00,-2.461657822132110318e-01,1.251371519291444656e+01
3.698783125968198249e+00,-2.485115379095077237e-01,1.253965483626222444e+01
3.683419566937022438e+00,-2.509115934371947687e-01,1.256609065676402892e+01
4.869220902316806487e+00,-1.477007716894149503e-01,1.053005161431383563e+01
4.864733398361950734e+00,-1.476506292819976529e-01,1.053772867309204742e+01
4.860248858445825881e+00,-1.476060897111892423e-01,1.054540086204492866e+01
4.855766839144056490e+00,-1.475671231746673306e-01,1.055306870774015948e+01
4.851287009485766077e+00,-1.475337445735931119e-01,1.056073278047195885e+01
4.846808817332863839e+00,-1.475058943033218106e-01,1.056839355663746716e+01
4.842332554078494944e+00,-1.474836468696593961e-01,1.057605195910615237e+01
4.837857051765171335e+00,-1.474669277667998990e-01,1.058370810042290167e+01
4.833382598513724204e+00,-1.474557667970657071e-01,1.059136290909568245e+01
4.828908650133104885e+00,-1.474501639604568204e-01,1.059901684782813369e+01
4.824435078120732356e+00,-1.474501490592956265e-01,1.060667061303155911e+01
4.819961134414842974e+00,-1.474556475877761563e-01,1.061432454370900658e+01
4.815486793149421629e+00,-1.474667340517043790e-01,1.062197939691382587e+01
4.811011512938257795e+00,-1.474833488464355191e-01,1.062963563051664728e+01
4.806534863446219497e+00,-1.475054770708083829e-01,1.063729374853114606e+01
4.802057006783922333e+00,-1.475332379341125211e-01,1.064495465909826422e+01
4.797577407642306113e+00,-1.475665569305419644e-01,1.065261880961713281e+01
4.793095330113903429e+00,-1.476054340600967130e-01,1.066028651814779238e+01
4.788610827595617181e+00,-1.476498991250991544e-01,1.066795864266065053e+01
4.784123375997737071e+00,-1.476999223232269010e-01,1.067563561122282678e+01
4.779633024977378852e+00,-1.477556079626083096e-01,1.068331828824873142e+01
4.775138838028674115e+00,-1.478168517351150235e-01,1.069100686245931442e+01
4.770640772924057416e+00,-1.478837281465530118e-01,1.069870211910043523e+01
4.766138489343189732e+00,-1.479562371969222745e-01,1.070640464457631857e+01
4.761631643225952004e+00,-1.480344086885451993e-01,1.071411503173518653e+01
4.757119886772441575e+00,-1.481182277202605924e-01,1.072183387986926562e+01
4.752602673454241256e+00,-1.482077240943908414e-01,1.072956165570969844e+01
4.748080159772294806e+00,-1.483029276132583341e-01,1.073729927706342657e+01
4.743551486146285079e+00,-1.484038531780242642e-01,1.074504703759596680e+01
4.739016801597584205e+00,-1.485105305910110196e-01,1.075280586800226956e+01
4.734474974631600830e+00,-1.486229151487350186e-01,1.076057581799819651e+01
4.729926028726961995e+00,-1.487410664558410367e-01,1.076835779710616947e+01
4.725369906696961664e+00,-1.488650292158126553e-01,1.077615261634806032e+01
4.720806234563212023e+00,-1.489948630332946500e-01,1.078396092012411245e+01
4.716234094518764408e+00,-1.491304934024810513e-01,1.079178286493526429e+01
4.711653487603543411e+00,-1.492719799280166348e-01,1.079961939896795542e+01
4.707064326712574243e+00,-1.494194418191909512e-01,1.080747138479607372e+01
4.702465495310395482e+00,-1.495727598667144498e-01,1.081533884635947018e+01
4.697857281310352739e+00,-1.497320681810378751e-01,1.082322295001822710e+01
4.693239104525972927e+00,-1.498973667621612271e-01,1.083112422049950041e+01
4.688610326544155882e+00,-1.500686705112456998e-01,1.083904304536588370e+01
4.683971102255929608e+00,-1.502460539340972623e-01,1.084698058269293242e+01
4.679320410750309911e+00,-1.504295021295547208e-01,1.085493692914504216e+01
4.674658495063230390e+00,-1.506191194057464322e-01,1.086291332841032720e+01
4.669984334283700633e+00,-1.508148461580276212e-01,1.087090987715318491e+01
4.665297980198715777e+00,-1.510168164968490323e-01,1.087892767361263147e+01
4.660598852621805399e+00,-1.512250155210494718e-01,1.088696724251582637e+01
4.655886635801207873e+00,-1.514394879341125211e-01,1.089502936542758427e+01
4.651160734591322843e+00,-1.516602933406829556e-01,1.090311459285107709e+01
4.646420906426155462e+00,-1.518874764442443570e-01,1.091122381773968364e+01
4.641666938657989405e+00,-1.521210968494415006e-01,1.091935788149476139e+01
4.636897662394387609e+00,-1.523611396551131925e-01,1.092751689827219685e+01
4.632113482001958715e+00,-1.526077240705489835e-01,1.093570230876121485e+01
4.627313757457690357e+00,-1.528609097003936490e-01,1.094391474079301219e+01
4.622497541036362456e+00,-1.531206518411636075e-01,1.095215440242055394e+01
4.617664986019096141e+00,-1.533870995044707974e-01,1.096042269198800412e+01
4.612815232825573375e+00,-1.536602377891540250e-01,1.096871990316087775e+01
4.607948052239031256e+00,-1.539401859045028409e-01,1.097704714338515508e+01
4.603063010444533809e+00,-1.542269587516784390e-01,1.098540516016512036e+01
4.598159452459936958e+00,-1.545206457376479825e-01,1.099379460710798107e+01
4.593237075882703913e+00,-1.548212915658950528e-01,1.100221648027115506e+01
4.588295152544921152e+00,-1.551289409399032315e-01,1.101067132187328923e+01
4.583333556333860415e+00,-1.554436832666396817e-01,1.101916029919690843e+01
4.578351836865543589e+00,-1.557656377553939542e-01,1.102768442579091257e+01
4.573348825247538940e+00,-1.560947746038436612e-01,1.103624381581118996e+01
4.568324556697788807e+00,-1.564311832189559659e-01,1.104483983354137422e+01
4.563278344705966383e+00,-1.567749977111816129e-01,1.105347342440930980e+01
4.558210019891847153e+00,-1.571262776851653775e-01,1.106214559275693432e+01
4.553118368485591816e+00,-1.574850082397460660e-01,1.107085653006815917e+01
4.548003686920035094e+00,-1.578514277935027799e-01,1.107960833800150802e+01
4.542864468682264345e+00,-1.582254469394683560e-01,1.108840076248663920e+01
4.537700704112820560e+00,-1.586072444915771207e-01,1.109723524513522364e+01
4.532512087589347871e+00,-1.589969247579574307e-01,1.110611326254189812e+01
4.527297581631813728e+00,-1.593945324420928678e-01,1.111503517741568459e+01
4.522056690978829785e+00,-1.598001569509505948e-01,1.112400208063351315e+01
4.516788640975165414e+00,-1.602138578891753873e-01,1.113301483201067654e+01
4.517544884946112838e+00,-1.616786122322082242e-01,1.115030829023057279e+01
4.537543732496402527e+00,-1.665180027484893521e-01,1.119442156151824008e+01
4.558906685492649657e+00,-1.716853082180022916e-01,1.124143915485871759e+01
4.581605720243903335e+00,-1.771846264600753507e-01,1.129142336991033524e+01
4.605705231924988041e+00,-1.830367147922515592e-01,1.134457056566832911e+01
4.631688596312551809e+00,-1.893384754657745084e-01,1.140169391476848659e+01
4.659579896311939251e+00,-1.961070895195007047e-01,1.146297279004237346e+01
4.689333014987822956e+00,-2.033475190401076993e-01,1.152848855530104544e+01
4.721257235153136556e+00,-2.111307382583617887e-01,1.159886203560161988e+01
4.755683529446106839e+00,-2.195345461368560513e-01,1.167477833005612453e+01
4.792197612520961769e+00,-2.284993976354598721e-01,1.175580039286746192e+01
4.831264011052448737e+00,-2.381307631731033048e-01,1.184284678629903098e+01
4.837709351450140360e+00,-2.416936457157134732e-01,1.188006672607457404e+01
4.821610565929450587e+00,-2.409633696079253873e-01,1.188166543198324732e+01
4.805516574013909192e+00,-2.402286231517791470e-01,1.188310483150080898e+01
4.789497063313586267e+00,-2.395028173923492154e-01,1.188449759095548330e+01
4.773606353367181754e+00,-2.387968897819518765e-01,1.188593725836042481e+01
4.757773059942738136e+00,-2.380969524383544644e-01,1.188730839095788028e+01
4.742055355196150401e+00,-2.374148070812225064e-01,1.188871214801108422e+01
4.726416752097396312e+00,-2.367433458566665372e-01,1.189009027789680140e+01
4.710857567338118557e+00,-2.360828667879104337e-01,1.189144627233319440e+01
4.695389049457771691e+00,-2.354358434677123746e-01,1.189280278556087467e+01
4.680020704356541827e+00,-2.348046749830245694e-01,1.189418214962906006e+01
4.664706063161759175e+00,-2.341796308755874356e-01,1.189550198851889817e+01
4.649479416460296832e+00,-2.335682362318038663e-01,1.189682837594143372e+01
4.634356880820030611e+00,-2.329743802547454556e-01,1.189819671508038823e+01
4.619285871961992029e+00,-2.323868125677108487e-01,1.189951046790547018e+01
4.604316277830968751e+00,-2.318167835474014005e-01,1.190086915602446460e+01
4.589403558142817197e+00,-2.312545925378799161e-01,1.190218945522336114e+01
4.574577120766721627e+00,-2.307072281837463101e-01,1.190353350288067702e+01
4.559824304094892256e+00,-2.301720529794692716e-01,1.190487989213367470e+01
4.545119174537164852e+00,-2.296432107686996182e-01,1.190617759870147907e+01
4.530490421924204369e+00,-2.291276901960372647e-01,1.190748999721108348e+01
4.515923750612762966e+00,-2.286223620176315030e-01,1.190879018408746681e+01
4.501432689440325596e+00,-2.281308174133300504e-01,1.191011137157095945e+01
4.486987694295582862e+00,-2.276460230350494107e-01,1.191139189453574332e+01
4.472615739068394269e+00,-2.271749377250671109e-01,1.191269523440261224e+01
4.458292070330392320e+00,-2.267115861177444180e-01,1.191396857085452865e+01
4.444022724332406860e+00,-2.262577861547469815e-01,1.191522905223030548e+01
4.429819473453497025e+00,-2.258167713880538663e-01,1.191650721744479036e+01
4.415665901943077287e+00,-2.253845930099487027e-01,1.191776817883445538e+01
4.401567849973302415e+00,-2.249630987644195279e-01,1.191902966009484999e+01
4.387517445679451455e+00,-2.245503365993499478e-01,1.192027482588904519e+01
4.373521091711133124e+00,-2.241483926773071012e-01,1.192152351814015177e+01
4.359576406546040062e+00,-2.237569391727447232e-01,1.192277366557787133e+01
4.345668041361951950e+00,-2.233718037605285367e-01,1.192398782963614501e+01
4.331813569132351383e+00,-2.229982912540435513e-01,1.192521576608905676e+01
4.318009979581288071e+00,-2.226360142230987271e-01,1.192645434961722373e+01
4.304243853414958743e+00,-2.222811430692672452e-01,1.192766946674241169e+01
4.290515939999971273e+00,-2.219341844320296964e-01,1.192886623858859885e+01
4.276842492216109903e+00,-2.216004729270934781e-01,1.193009503311446196e+01
4.263207654910472932e+00,-2.212754786014556607e-01,1.193131453431807643e+01
4.249608307323548217e+00,-2.209584414958953580e-01,1.193251824483498069e+01
4.236032782930196916e+00,-2.206457257270812711e-01,1.193367306840816866e+01
4.222502646382874758e+00,-2.203447371721267423e-01,1.193484871965803684e+01
4.209004667086921003e+00,-2.200513631105422696e-01,1.193600719754107686e+01
4.195536839108334526e+00,-2.197652012109756192e-01,1.193714554611813128e+01
4.182108617770055936e+00,-2.194898575544357022e-01,1.193829805931694921e+01
4.168710832242582320e+00,-2.192224860191344937e-01,1.193943874030016516e+01
4.155343982416944471e+00,-2.189635485410690030e-01,1.194057242757809156e+01
4.142008345407057313e+00,-2.187135219573974332e-01,1.194170410603258148e+01
4.128713570804545263e+00,-2.184766232967376431e-01,1.194287438469633500e+01
4.115481487566271745e+00,-2.182624638080596646e-01,1.194417532224813883e+01
4.102275056905159367e+00,-2.180570065975188931e-01,1.194547433201174513e+01
4.089092316154699702e+00,-2.178598791360854825e-01,1.194676862098857129e+01
4.075931385493619885e+00,-2.176706045866012296e-01,1.194805406595694208e+01
4.062790871172503593e+00,-2.174889743328094205e-01,1.194932903107139310e+01
4.049673763278269334e+00,-2.173167467117309293e-01,1.195061068861931375e+01
4.037494288844708734e+00,-2.175885736942290982e-01,1.195605923287057948e+01
4.027622899826035052e+00,-2.190119773149490079e-01,1.197247127371159792e+01
4.017727877573189943e+00,-2.205161005258559903e-01,1.198961443360942170e+01
4.007693103785597621e+00,-2.220481932163238248e-01,1.200698343650025990e+01
3.997524619483290742e+00,-2.236139476299285611e-01,1.202463223416547322e+01
3.987203120923150657e+00,-2.252060025930404386e-01,1.204248911618006446e+01
3.976738581907530268e+00,-2.268325537443160733e-01,1.206063236955873741e+01
3.966112773001193581e+00,-2.284863293170928678e-01,1.207899104518249800e+01
3.955335136857137890e+00,-2.301759719848632535e-01,1.209764767021093945e+01
3.944404556039533993e+00,-2.319047003984451016e-01,1.211663219445277484e+01
3.933295797208681499e+00,-2.336603552103042325e-01,1.213582660102969868e+01
3.922018644597676129e+00,-2.354527413845061978e-01,1.215532422826636072e+01
3.910570686435556276e+00,-2.372846901416778287e-01,1.217515179385829072e+01
3.898936395190800042e+00,-2.391497641801833829e-01,1.219524556777923152e+01
3.887121239416138962e+00,-2.410565167665481290e-01,1.221568756260846200e+01
3.875110927018527107e+00,-2.429993152618407926e-01,1.223642165681992466e+01
3.862910289547421883e+00,-2.449874281883239469e-01,1.225753666047996049e+01
3.850507380613894526e+00,-2.470173239707946500e-01,1.227899710962842228e+01
3.837887765373347193e+00,-2.490819692611694058e-01,1.230073287903874046e+01
3.825064641040250457e+00,-2.512008547782897394e-01,1.232293259883720538e+01
3.812009622778278484e+00,-2.533532679080962580e-01,1.234539248455332228e+01
3.798737307260399376e+00,-2.555631101131438654e-01,1.236834387888436737e+01
3.785226149744077340e+00,-2.578155696392058771e-01,1.239164127213133071e+01
3.771474123445502258e+00,-2.601179182529448908e-01,1.241535323015068393e+01
3.757476117579432007e+00,-2.624752223491668146e-01,1.243952750842181310e+01
3.743218492685262078e+00,-2.648807466030120294e-01,1.246409664860400568e+01
3.728694786486168589e+00,-2.673375010490416925e-01,1.248908722296114249e+01
3.713902526923212655e+00,-2.698589563369750421e-01,1.251462983820337271e+01
3.698824622046461563e+00,-2.724305391311644953e-01,1.254057867437968454e+01
3.683455644588365274e+00,-2.750616371631621759e-01,1.256702430633425394e+01
4.868847395110338816e+00,-1.605988144874572476e-01,1.052986159667705124e+01
4.864361181380930432e+00,-1.605442911386489591e-01,1.053753643227441827e+01
4.859877830456107439e+00,-1.604958474636077603e-01,1.054520633498790971e+01
4.855397210093501670e+00,-1.604534983634948453e-01,1.055287200767283728e+01
4.850918668790767718e+00,-1.604171991348266324e-01,1.056053386044579412e+01
4.846441764993423718e+00,-1.603869050741195401e-01,1.056819241665245812e+01
4.841966584821479458e+00,-1.603627055883407315e-01,1.057584847787821580e+01
4.837492682980666814e+00,-1.603445410728454312e-01,1.058350257391274596e+01
4.833019621188816117e+00,-1.603324413299560269e-01,1.059115522246322882e+01
4.828546961163754148e+00,-1.603263467550277432e-01,1.059880694123683575e+01
4.824074574402898996e+00,-1.603263020515441617e-01,1.060645842664487404e+01
4.819601816883473333e+00,-1.603322923183440885e-01,1.061411007591593680e+01
4.815128560570369309e+00,-1.603443026542663297e-01,1.062176258465582457e+01
4.810654673688693705e+00,-1.603623628616332730e-01,1.062941665491434584e+01
4.806179717488801018e+00,-1.603865027427673062e-01,1.063707280520417697e+01
4.801702950453551111e+00,-1.604166477918624600e-01,1.064473136325136160e+01
4.797224337834941288e+00,-1.604528427124023160e-01,1.065239310141375384e+01
4.792743852364537815e+00,-1.604951471090316495e-01,1.066005877916120426e+01
4.788260643811484307e+00,-1.605434864759444913e-01,1.066772867404921321e+01
4.783774581803307946e+00,-1.605979055166244229e-01,1.067540348571109021e+01
4.779285524748182468e+00,-1.606584489345550260e-01,1.068308393311214743e+01
4.774792436775986637e+00,-1.607250124216079434e-01,1.069077013869279469e+01
4.770295963729367372e+00,-1.607977747917175015e-01,1.069846336455070279e+01
4.765794878489261421e+00,-1.608766019344329556e-01,1.070616358767719056e+01
4.761289326337257322e+00,-1.609615981578826627e-01,1.071387174521121111e+01
4.756778966953017829e+00,-1.610527485609054288e-01,1.072158842355698738e+01
4.752263158183657410e+00,-1.611500531435012540e-01,1.072931401672111029e+01
4.747741747217999020e+00,-1.612535715103149137e-01,1.073704926300089824e+01
