1.588791675766568989e+00,-2.428538353874953870e-02,-4.868593436443108935e+00
1.560637541016202778e+00,-3.199011834099563245e-02,-4.870244604312676806e+00
1.532167382439237446e+00,-3.977973015740188245e-02,-4.871925455295342822e+00
1.503375001152616353e+00,-4.765350373223098401e-02,-4.873636376821298022e+00
1.474236912926297993e+00,-5.564386399224074964e-02,-4.875380855762261767e+00
1.444774813850980610e+00,-6.369645150139602308e-02,-4.877154242955941577e+00
1.414955325325589985e+00,-7.186061890557082776e-02,-4.878961694204110522e+00
1.384773678978544087e+00,-8.013135941460403089e-02,-4.880803239309090991e+00
1.354194112022977681e+00,-8.855850251152785901e-02,-4.882684242688912768e+00
1.323260016640287251e+00,-9.705073388054641370e-02,-4.884596389495629687e+00
1.291931219299894185e+00,-1.056652739806440700e-01,-4.886545789205331225e+00
1.260198660095792622e+00,-1.144025996489790309e-01,-4.888533037864465136e+00
1.228070802887540669e+00,-1.232348159117964137e-01,-4.890556019508141894e+00
1.195535369118314595e+00,-1.321683600707319606e-01,-4.892615956031579394e+00
1.162552781303983540e+00,-1.412535384459761012e-01,-4.894718360864419360e+00
1.129146523674589009e+00,-1.504374221129682887e-01,-4.896858704053658862e+00
1.095300383766752095e+00,-1.597307399077680934e-01,-4.899038714133996386e+00
1.060981221397977681e+00,-1.691714003844526637e-01,-4.901262801849145312e+00
1.026205964287381978e+00,-1.787174418731001246e-01,-4.903527480327386279e+00
9.909305049978311963e-01,-1.884208396239546168e-01,-4.905838680230874438e+00
9.551813079916056104e-01,-1.982253268523481715e-01,-4.908191484176415820e+00
-8.176880339755454585e-02,-1.686097212152030789e+00,-5.060897898637551684e+00
3.014310188492399067e+00,-1.081682272271659695e+00,-4.963709127866525073e+00
2.992668785055738301e+00,-9.851446822448042262e-01,-4.954806369506616015e+00
3.008165947993856282e+00,-1.565230563445356715e-01,-4.877654594146508593e+00
3.005883611639600606e+00,1.662916466431352269e-01,-4.847643774711388964e+00
2.999896891316037983e+00,3.643304630951615941e-01,-4.829264801704186816e+00
2.982628740271192402e+00,3.595792576508256566e-01,-4.829809886180657763e+00
2.965285353263479085e+00,3.547934815125199925e-01,-4.830368351899880786e+00
2.947867713769536824e+00,3.500098511414262425e-01,-4.830936801397103686e+00
2.930371440847974629e+00,3.451940342621537816e-01,-4.831518542730111498e+00
2.912796236475568623e+00,3.403641506867143285e-01,-4.832111996375817675e+00
2.895138211449247212e+00,3.354977890686723363e-01,-4.832719308101434130e+00
2.877397455175977559e+00,3.306154534058305394e-01,-4.833338630162972827e+00
2.859571941097837300e+00,3.257157131867143285e-01,-4.833970230781335253e+00
2.841657824715238423e+00,3.207802101807328832e-01,-4.834615838491219897e+00
2.823657579620939106e+00,3.158466145233842504e-01,-4.835272115432519335e+00
2.805562205513578267e+00,3.108572289185258519e-01,-4.835944515430230517e+00
2.787374474009137959e+00,3.058509155945512425e-01,-4.836629492007989306e+00
2.769092328747373433e+00,3.008262440399858129e-01,-4.837327253782052416e+00
2.750714041193586201e+00,2.957846447663041722e-01,-4.838037830554742236e+00
2.732231534918409199e+00,2.906860634522172582e-01,-4.838765066825646777e+00
2.713651515444379658e+00,2.855889126496049535e-01,-4.839503598176736254e+00
2.694965876539808125e+00,2.804543301300737035e-01,-4.840257149898309130e+00
2.676172234018903584e+00,2.752816006378862035e-01,-4.841025960408944506e+00
2.657271690567594380e+00,2.700907513336869847e-01,-4.841808211766976733e+00
2.638258404930692524e+00,2.648612782196733129e-01,-4.842606049739617724e+00
2.619129903515439839e+00,2.595929428772660863e-01,-4.843419533931512255e+00
2.599887616833310933e+00,2.543055340485307347e-01,-4.844246965610284228e+00
2.580525226791959614e+00,2.489785477356645238e-01,-4.845090430938500781e+00
2.561044342716794819e+00,2.436320110993119847e-01,-4.845948141776818652e+00
2.541434176167112202e+00,2.382258698181840550e-01,-4.846824061834115405e+00
2.521699853142362446e+00,2.327970787720414769e-01,-4.847714883052606005e+00
2.501838691433530659e+00,2.273434921936723363e-01,-4.848620843850869555e+00
2.481839306553464741e+00,2.218276783661576879e-01,-4.849545758926171679e+00
2.461708493431669087e+00,2.162904068665238988e-01,-4.850485873185891528e+00
2.441438861092191548e+00,2.107114121155473363e-01,-4.851443272792596240e+00
2.421027727326017231e+00,2.050916477875444066e-01,-4.852418076955575366e+00
2.400471873482328267e+00,1.994294449524613988e-01,-4.853410583698052783e+00
2.379768021305662007e+00,1.937233730988237035e-01,-4.854421120845574755e+00
2.358919091423612446e+00,1.879948898987504613e-01,-4.855447810851830859e+00
2.337910838326078267e+00,1.822032257752153050e-01,-4.856494796239632983e+00
2.316751725872617573e+00,1.763891503052446019e-01,-4.857558292114037890e+00
2.295426256855588765e+00,1.705095097260209691e-01,-4.858642679416436572e+00
2.273937351902585835e+00,1.645860001282426488e-01,-4.859746110402840991e+00
2.252288170059781880e+00,1.586386486725541722e-01,-4.860866767131585497e+00
2.230462558468442769e+00,1.526257321076127660e-01,-4.862009000741738696e+00
2.208463080128293843e+00,1.465668007569047582e-01,-4.863171112500924487e+00
2.186286695202451558e+00,1.404628082947465550e-01,-4.864353221618432421e+00
2.163929171761136860e+00,1.343116089539262425e-01,-4.865555775129098315e+00
2.141385860642057271e+00,1.281093880371781957e-01,-4.866779369079369921e+00
2.118645854195218892e+00,1.218361183838578832e-01,-4.868026268445748705e+00
2.095712013443570942e+00,1.155106350617143285e-01,-4.869294863902825732e+00
2.072576470574003071e+00,1.091224476532670629e-01,-4.870586466752786059e+00
2.049237437447172017e+00,1.026775166229936254e-01,-4.871900719367761035e+00
2.025685973366361470e+00,9.616225211188522692e-02,-4.873239290677804370e+00
2.001924581726651997e+00,8.959525076911178942e-02,-4.874600571357507128e+00
1.977940983971219868e+00,8.295529334113327380e-02,-4.875987034999627490e+00
1.953748650749784321e+00,7.628720252082077380e-02,-4.877394479476708788e+00
1.929351515968900532e+00,6.961005179450241442e-02,-4.878821235858697314e+00
1.904719777306180806e+00,6.285994498297897692e-02,-4.880274069272775073e+00
1.879848189552884907e+00,5.603545157477585192e-02,-4.881753426753777880e+00
1.854741401871305317e+00,4.915898291632858630e-02,-4.883257400953072924e+00
1.829393215378385396e+00,4.222672431037155505e-02,-4.884786677324075121e+00
1.803781814774137349e+00,3.520005194709030505e-02,-4.886345577203530688e+00
1.777920789917569966e+00,2.812116591498581286e-02,-4.887930166684884448e+00
1.751794166763883442e+00,2.096550910041061755e-02,-4.889543276988763232e+00
1.725407667358976216e+00,1.375716177985397692e-02,-4.891182881557244677e+00
1.698742099007230610e+00,6.466083212349094111e-03,-4.892852437459725756e+00
1.671781964501005024e+00,-9.282305999067652635e-04,-4.894554448091287036e+00
1.644543476303678364e+00,-8.379764871146999639e-03,-4.896284621917504687e+00
1.617009349068265767e+00,-1.591259987786086683e-02,-4.898045849763650317e+00
1.589183159073453755e+00,-2.350766213372024183e-02,-4.899836581908959765e+00
1.561035342415433735e+00,-3.121168168022903089e-02,-4.901662212573785204e+00
1.532572694023710103e+00,-3.899843247368606214e-02,-4.903520417176980395e+00
1.503787226875882954e+00,-4.687077553704055433e-02,-4.905411970578927416e+00
1.474656052788358540e+00,-5.485946686699660901e-02,-4.907340687476891894e+00
1.445201225479703755e+00,-6.291014702751906995e-02,-4.909301292859811205e+00
1.415388651093107075e+00,-7.107336075737746839e-02,-4.911299627982873339e+00
1.385212011536222310e+00,-7.934624703362258558e-02,-4.913336080276269335e+00
1.354640193184476704e+00,-8.777100594475539808e-02,-4.915415596925515551e+00
1.323713369568448872e+00,-9.626180680229934339e-02,-4.917529714071053881e+00
1.292392440041166157e+00,-1.048739627166059840e-01,-4.919684839212197680e+00
1.260667748650174946e+00,-1.136091426177290309e-01,-4.921881896220940966e+00
1.228547401627164692e+00,-1.224399283690718043e-01,-4.924118530713815112e+00
1.196019954880338521e+00,-1.313708499236372340e-01,-4.926395875179070849e+00
1.163045115669828267e+00,-1.404545977874067653e-01,-4.928720307313699145e+00
1.129646725853544087e+00,-1.496365741057661403e-01,-4.931086671315926928e+00
1.095809169014554829e+00,-1.589270308776167262e-01,-4.933496785127419848e+00
1.061501450737577290e+00,-1.683610156340864528e-01,-4.935955148898858447e+00
1.026739783485990376e+00,-1.778970435424116481e-01,-4.938458067142266650e+00
9.914764835439737745e-01,-1.875925734801557887e-01,-4.941012632810372729e+00
9.557373001180704541e-01,-1.973930075927046168e-01,-4.943613690101403613e+00
3.014045007427793355e+00,-1.088881559686210476e+00,-5.001935911142129321e+00
2.992464415629964680e+00,-9.898997023864057887e-01,-4.991930139028329272e+00
3.007931969960790486e+00,-1.612857058806684840e-01,-4.907382768356103320e+00
3.005676992138486714e+00,1.625537201599809300e-01,-4.874390256368417162e+00
2.999844126304250569e+00,3.634714409546586644e-01,-4.853955101930398364e+00
2.982571296294790120e+00,3.587295338349076879e-01,-4.854551535808343310e+00
2.965223379334073872e+00,3.539530560211869847e-01,-4.855162572824258227e+00
2.947801254590612263e+00,3.491787239746781957e-01,-4.855784636699456591e+00
2.930300094088178486e+00,3.443655296997758519e-01,-4.856421929561395068e+00
2.912719704111677022e+00,3.395349308685990941e-01,-4.857072395049828906e+00
2.895056523283582539e+00,3.346680924133988988e-01,-4.857738029920358080e+00
2.877310521801572651e+00,3.297852799133988988e-01,-4.858416837417382617e+00
2.859479822119336934e+00,3.248850628571244847e-01,-4.859109085761804003e+00
2.841560430725675435e+00,3.199486061768266332e-01,-4.859816771709222216e+00
2.823554880817991108e+00,3.150140568451615941e-01,-4.860536080562371630e+00
2.805454321106534810e+00,3.100244328217240941e-01,-4.861273032390374560e+00
2.787261254986387105e+00,3.050171658234330785e-01,-4.862023842298287768e+00
2.768973775108915181e+00,2.999917790131303441e-01,-4.862788689100045580e+00
2.750590093334775776e+00,2.949489876465531957e-01,-4.863567572795647997e+00
2.732102222641568989e+00,2.898496910767289769e-01,-4.864364665710229296e+00
2.713516808947187275e+00,2.847515865998002660e-01,-4.865174186193246264e+00
2.694825656612974019e+00,2.796155735687944066e-01,-4.866000217162866015e+00
2.676026470860105366e+00,2.744416519837113988e-01,-4.866842967235345263e+00
2.657120354374509663e+00,2.692493721680375707e-01,-4.867700469457406420e+00
2.638101465900998921e+00,2.640184685425492894e-01,-4.868574988805550952e+00
2.618967302044492573e+00,2.587487026886674535e-01,-4.869466733896035571e+00
2.599719293316465230e+00,2.534593865112992894e-01,-4.870373797380227465e+00
2.580351300438505024e+00,2.481314465241166722e-01,-4.871298325025338549e+00
2.560864694317441792e+00,2.427832409577104222e-01,-4.872238558494347949e+00
2.541248686512571187e+00,2.373756691651078832e-01,-4.873198759519357104e+00
2.521508879860502095e+00,2.319466397003862035e-01,-4.874175083600778002e+00
2.501642055710416646e+00,2.264923378662797582e-01,-4.875168096982736010e+00
2.481636769970517964e+00,2.209750935272905004e-01,-4.876181971990365405e+00
2.461500055988889546e+00,2.154359146790238988e-01,-4.877212536298531909e+00
2.441224522789579243e+00,2.098557278351518285e-01,-4.878261995279092211e+00
2.420807309349637837e+00,2.042340561585160863e-01,-4.879330587350625414e+00
2.400245614250760884e+00,1.985708996491166722e-01,-4.880418491327065844e+00
2.379535622795682759e+00,1.928629204468461644e-01,-4.881526273452538867e+00
2.358680613239866108e+00,1.871332451538774144e-01,-4.882651668750543017e+00
2.337666101654630513e+00,1.813396736817094457e-01,-4.883799385988015551e+00
2.316500730713468403e+00,1.755236908631059300e-01,-4.884965193235177416e+00
2.295169182022672505e+00,1.696430966095658910e-01,-4.886153829061288256e+00
2.273674018581968159e+00,1.637176796631547582e-01,-4.887363356315392870e+00
2.252018459042173237e+00,1.577686592774125707e-01,-4.888591837846536059e+00
2.230186410149198384e+00,1.517540737824174535e-01,-4.889843952619332690e+00
2.208180613716703267e+00,1.456937119202348363e-01,-4.891117793285149951e+00
2.185997672279935689e+00,1.395878121094438207e-01,-4.892413598262566943e+00
2.163633651932340474e+00,1.334349438385697972e-01,-4.893731814586419482e+00
2.141078658302884907e+00,1.272165104584428441e-01,-4.895074677430886645e+00
2.118324346741300435e+00,1.209196373657914769e-01,-4.896443885528344531e+00
2.095376677712064595e+00,1.145734116272660863e-01,-4.897836577855843920e+00
2.072231478890043110e+00,1.081764027313920629e-01,-4.899253141843575854e+00
2.048885054787259907e+00,1.017293259339067113e-01,-4.900693875514764208e+00
2.025325961311918110e+00,9.521167723700729724e-02,-4.902161252462167162e+00
2.001557178696256489e+00,8.864300696418014880e-02,-4.903653514348763842e+00
1.977566189964872212e+00,8.200114218756882067e-02,-4.905173343383569140e+00
1.953365750511747212e+00,7.532971350714889880e-02,-4.906716328822869677e+00
1.928960986336332173e+00,6.865065543219772692e-02,-4.908280354701775927e+00
1.904321260651212544e+00,6.189792601630417224e-02,-4.909873020612496752e+00
1.879441924294095845e+00,5.507152525946823474e-02,-4.911494684182900805e+00
1.854327149590116353e+00,4.819267241522995349e-02,-4.913143378459710497e+00
1.828970618446927876e+00,4.125755278632370349e-02,-4.914819878303307910e+00
1.803348489006620259e+00,3.422229735419479724e-02,-4.916529488527078051e+00
1.777475662430387349e+00,2.713315932318893786e-02,-4.918267381154794116e+00
1.751337714394193501e+00,1.996891943976608630e-02,-4.920036447011727709e+00
1.724941797455411763e+00,1.275628058478561755e-02,-4.921834033691186328e+00
1.698266573151212544e+00,5.460672064277805049e-03,-4.923664492332238574e+00
1.671297259529691548e+00,-1.937218026664577764e-03,-4.925530385934609789e+00
1.644049711426359028e+00,-9.391374902274929326e-03,-4.927427095138329882e+00
1.616506762703519673e+00,-1.692659409477981214e-02,-4.929357778989571948e+00
1.588671035965543599e+00,-2.452499421074660901e-02,-4.931320947372216601e+00
1.560514397820096821e+00,-3.223115952446731214e-02,-4.933322173320550341e+00
1.532042093475919575e+00,-4.002100975945266370e-02,-4.935359251462716479e+00
1.503247208794217915e+00,-4.789621384575637464e-02,-4.937432897054452319e+00
1.474106617172818989e+00,-5.588752778008254651e-02,-4.939547163211602587e+00
1.444641776283841939e+00,-6.394154580071242933e-02,-4.941696506702203173e+00
1.414817161759000630e+00,-7.211143525078567151e-02,-4.943887662851113696e+00
1.384628243645292134e+00,-8.039195092156203870e-02,-4.946120601856011767e+00
1.354045934876066060e+00,-8.882004769280227308e-02,-4.948400300704736132e+00
1.323108859261136860e+00,-9.731394799187453870e-02,-4.950717848502892870e+00
1.291777439316373677e+00,-1.059289649291303981e-01,-4.953080427610177416e+00
1.260041899880033345e+00,-1.146679595275190700e-01,-4.955489021503228564e+00
1.227910943230253071e+00,-1.235016063018110621e-01,-4.957940858566064257e+00
1.195372171600919575e+00,-1.324368193908003200e-01,-4.960437518321771044e+00
1.162388510902982564e+00,-1.415200904174116481e-01,-4.962985229455727954e+00
1.128985114296537251e+00,-1.506956294341352809e-01,-4.965578150712746996e+00
1.095143265923124165e+00,-1.599791720671919215e-01,-4.968218934499520678e+00
1.060828871925931782e+00,-1.694086268706587184e-01,-4.970912975036401171e+00
1.026058860024076314e+00,-1.789434626860884059e-01,-4.973656189405221362e+00
9.907872154317911573e-01,-1.886382773680952418e-01,-4.976456117593545336e+00
9.550358726583536573e-01,-1.984430030150678981e-01,-4.979307514392632861e+00
3.013980887731176228e+00,-1.090622968987968289e+00,-5.039753001891869921e+00
2.992652527888875813e+00,-9.855228141112593043e-01,-5.028190624677438159e+00
3.007887877424817891e+00,-1.621831134124067653e-01,-4.936819565259713549e+00
3.005647726257901997e+00,1.620241924957963597e-01,-4.900894683563012499e+00
2.999894387920957417e+00,3.642896935181352269e-01,-4.878518682681817431e+00
2.982627130945783467e+00,3.595554157929155004e-01,-4.879166495763558764e+00
2.965284936030965657e+00,3.547877594666215550e-01,-4.879830104076165576e+00
2.947868607839208455e+00,3.500212952332231175e-01,-4.880505782329339404e+00
2.930372960766416401e+00,3.452116772370072972e-01,-4.881198477708596606e+00
2.912797905405622334e+00,3.403822704987260472e-01,-4.881905746423501391e+00
2.895140148600202412e+00,3.355173393921586644e-01,-4.882629436218041796e+00
2.877399571140867085e+00,3.306357189850541722e-01,-4.883367550336617846e+00
2.859574295481305928e+00,3.257369324402543675e-01,-4.884120237790841479e+00
2.841660417517286152e+00,3.208021446900102269e-01,-4.884889674150246996e+00
2.823660321434598774e+00,3.158690258698197972e-01,-4.885671836101312060e+00
2.805565304955106587e+00,3.108810707764360082e-01,-4.886473101341027636e+00
2.787377841671567769e+00,3.058757111267778050e-01,-4.887289446555871386e+00
2.769095964630704731e+00,3.008517548279496800e-01,-4.888121050559777636e+00
2.750717855890851826e+00,2.958103939728471410e-01,-4.888967972957391162e+00
2.732235647638898701e+00,2.907127663330766332e-01,-4.889834654294747729e+00
2.713655866583448262e+00,2.856160923676225316e-01,-4.890714836084145922e+00
2.694970525702100606e+00,2.804819866852494847e-01,-4.891612988673943896e+00
2.676177061995130391e+00,2.753094956116410863e-01,-4.892529290878075976e+00
2.657276697357755513e+00,2.701188847260209691e-01,-4.893461656533975024e+00
2.638263650139432759e+00,2.648896500305863988e-01,-4.894412559234399218e+00
2.619135327538114399e+00,2.596213146881791722e-01,-4.895382147990960497e+00
2.599893279274564595e+00,2.543341442780229222e-01,-4.896368366443414111e+00
2.580531068047147603e+00,2.490071579651567113e-01,-4.897373658382195849e+00
2.561050481995206685e+00,2.436608597473832738e-01,-4.898395967447060961e+00
2.541440494259458394e+00,2.382549568848344457e-01,-4.899439972602624316e+00
2.521706886490445942e+00,2.328283116059037816e-01,-4.900501441919106860e+00
2.501846320828061909e+00,2.273766323761674535e-01,-4.901581090652245898e+00
2.481847055157285542e+00,2.218603417114946019e-01,-4.902683538162011523e+00
2.461716540058713765e+00,2.163233086304399144e-01,-4.903804045879144091e+00
2.441447384556394429e+00,2.107455059723588597e-01,-4.904945057594079394e+00
2.421036429604154439e+00,2.051252648071977269e-01,-4.906106960737008471e+00
2.400480933388334126e+00,1.994635388092729222e-01,-4.907289904319543261e+00
2.379777379234891743e+00,1.937579437927934300e-01,-4.908494305574197192e+00
2.358928747376066060e+00,1.880299374298783910e-01,-4.909717988931435961e+00
2.337920673092466206e+00,1.822380348877641332e-01,-4.910965901576775927e+00
2.316761858662229390e+00,1.764239594177934300e-01,-4.912233453952569384e+00
2.295436747273069233e+00,1.705450340943071019e-01,-4.913525891267556567e+00
2.273948259552579731e+00,1.646217629151078832e-01,-4.914841037952203173e+00
2.252299316128354878e+00,1.586746498779985082e-01,-4.916176748239297289e+00
2.230473883350950093e+00,1.526614948944780004e-01,-4.917538207732934374e+00
2.208473868568998189e+00,1.466001793579789769e-01,-4.918923598491448779e+00
2.186295874317746968e+00,1.404907032685014379e-01,-4.920333188735741992e+00
2.163936562737089009e+00,1.343333050446244847e-01,-4.921767246686715502e+00
2.141386218269925923e+00,1.281103417114946019e-01,-4.923228126727837939e+00
2.118637032707792134e+00,1.218108460144731175e-01,-4.924717408382195849e+00
2.095694847305875630e+00,1.154627129273149144e-01,-4.926232111417550463e+00
2.072556085785489888e+00,1.090666577057572972e-01,-4.927772533857125659e+00
2.049216814240079731e+00,1.026217266754838597e-01,-4.929339003526467700e+00
2.025664396484952778e+00,9.610527007147995349e-02,-4.930934590064782519e+00
2.001902766426664204e+00,8.953874556586471911e-02,-4.932557147704858203e+00
1.977918691834073872e+00,8.289854971930710192e-02,-4.934209716283578295e+00
1.953725524147611470e+00,7.622950522467819567e-02,-4.935887378417748828e+00
1.929327793320279927e+00,6.955187766120163317e-02,-4.937588047944802661e+00
1.904695458611112446e+00,6.280129401251999255e-02,-4.939319741689462084e+00
1.879823513229947896e+00,5.597703902289596911e-02,-4.941083025895852465e+00
1.854716129501920552e+00,4.910009352729050036e-02,-4.942875665389794726e+00
1.829366989334684224e+00,4.216664282843796130e-02,-4.944698613845605273e+00
1.803752370079618306e+00,3.513353316352096911e-02,-4.946557503902215380e+00
1.777887411316495747e+00,2.804677931830612536e-02,-4.948447120153207202e+00
1.751756735046964497e+00,2.088373152777878161e-02,-4.950370770656365771e+00
1.725366659363370747e+00,1.366894690558639880e-02,-4.952325832807320971e+00
1.698697276314359517e+00,6.371192617866672236e-03,-4.954316627942819018e+00
1.671734042366605610e+00,-1.028127984550319951e-03,-4.956345927678841967e+00
1.644494362076383442e+00,-8.480377511527859014e-03,-4.958408307992715258e+00
1.616959042748075337e+00,-1.601416619255813245e-02,-4.960507672988671679e+00
1.589131660660367817e+00,-2.360994370415481214e-02,-4.962642234527367968e+00
1.560982771118741841e+00,-3.131444008782180433e-02,-4.964818280898827929e+00
1.532518930634122700e+00,-3.910190613701614026e-02,-4.967033249103326220e+00
1.503732390602689595e+00,-4.697496445610793714e-02,-4.969287943803567309e+00
1.474600143631559224e+00,-5.496413262322219495e-02,-4.971586894952554125e+00
1.445144005020719380e+00,-6.301576645806106214e-02,-4.973923903667230029e+00
1.415325827797513814e+00,-7.118732483818801526e-02,-4.976306897365350146e+00
1.385145135124784321e+00,-7.946617157891067151e-02,-4.978734922372598071e+00
1.354571886261564106e+00,-8.789188416435989026e-02,-4.981213700734872241e+00
1.323643274506193013e+00,-9.638387711479934339e-02,-4.983733755313653369e+00
1.292320914467435689e+00,-1.049965098662641871e-01,-4.986302626096505541e+00
1.260594434937101216e+00,-1.137331202788618434e-01,-4.988921564780969042e+00
1.228472776611905903e+00,-1.225641444487837184e-01,-4.991587531530160327e+00
1.195943541725736470e+00,-1.314967349334028590e-01,-4.994302165471810717e+00
1.162970729073148579e+00,-1.405752375884321559e-01,-4.997072112523812670e+00
1.129580922325712056e+00,-1.497419551177290309e-01,-4.999890637361306567e+00
1.095753379067045064e+00,-1.590152457518843043e-01,-5.002761048042077441e+00
1.061451382835965962e+00,-1.684392169280317653e-01,-5.005689960681695361e+00
1.026691384514432759e+00,-1.779711917205122340e-01,-5.008672696315545458e+00
9.914297535024698682e-01,-1.876633837981489528e-01,-5.011717152559060473e+00
9.556893779836710401e-01,-1.974647715850141871e-01,-5.014817488157052416e+00
2.992569111188512654e+00,-9.874635413451460231e-01,-5.065203440152902026e+00
3.007854394515615315e+00,-1.628647521300581325e-01,-4.966304165088433642e+00
3.005625016888242573e+00,1.616136357025834691e-01,-4.927446287833947558e+00
2.999951563676458210e+00,3.652202412323686254e-01,-4.903102558814782519e+00
2.982690296968084187e+00,3.604900166229936254e-01,-4.903802168332833666e+00
2.965354122122388691e+00,3.557254597382280004e-01,-4.904518914186257739e+00
2.947943843802076191e+00,3.509623333649369847e-01,-4.905248653852242846e+00
2.930454365810018391e+00,3.461570069031449925e-01,-4.905996721946496386e+00
2.912885673245054097e+00,3.413328453736039769e-01,-4.906760406457681079e+00
2.895234294136625142e+00,3.364731594757768285e-01,-4.907541853153008837e+00
2.877500153978925557e+00,3.315965458588334691e-01,-4.908338856660622973e+00
2.859681434830289692e+00,3.267030045227738988e-01,-4.909151595794457812e+00
2.841773785551648945e+00,3.217703625397416722e-01,-4.909982842170495410e+00
2.823779977758985371e+00,3.168391510681840550e-01,-4.910827827417153735e+00
2.805691160162549824e+00,3.118523880676957738e-01,-4.911693525277871508e+00
2.787510074576001973e+00,3.068491741852494847e-01,-4.912575405799645800e+00
2.769234485825162739e+00,3.018268868164750707e-01,-4.913473886214990038e+00
2.750862784584623189e+00,2.967874333100053441e-01,-4.914388817512292285e+00
2.732386983831983418e+00,2.916914746002885472e-01,-4.915325176679391284e+00
2.713813729485135884e+00,2.865969464020463597e-01,-4.916276049577493090e+00
2.695134676893812031e+00,2.814637943939897191e-01,-4.917246472799081225e+00
2.676347918709379048e+00,2.762941643433305394e-01,-4.918236267530221362e+00
2.657454140385251851e+00,2.711052223877641332e-01,-4.919243586026925463e+00
2.638447649677854390e+00,2.658776566223832738e-01,-4.920270901881951708e+00
2.619326002796750874e+00,2.606114670471879613e-01,-4.921318393909234423e+00
2.600090630253415913e+00,2.553262039856645238e-01,-4.922383856736916918e+00
2.580735094746213765e+00,2.500011250214311254e-01,-4.923469972574014086e+00
2.561261303623777241e+00,2.446567341522905004e-01,-4.924574387037057299e+00
2.541658051212888569e+00,2.392525002197953832e-01,-4.925702315532464404e+00
2.521931417187314839e+00,2.338282391266557347e-01,-4.926849049293298144e+00
2.502077825268369526e+00,2.283787056641313207e-01,-4.928015392982262988e+00
2.482085652550321431e+00,2.228650376038285863e-01,-4.929206383191842455e+00
2.461962051590543599e+00,2.173296734528276097e-01,-4.930416953527230639e+00
2.441699869831662983e+00,2.117535397248002660e-01,-4.931649696790475268e+00
2.421296127041440815e+00,2.061356827454301488e-01,-4.932904911004800219e+00
2.400747783382993550e+00,2.004761025147172582e-01,-4.934182894193429370e+00
2.380051381786924214e+00,1.947724148468705785e-01,-4.935484123193520922e+00
2.359210081299405903e+00,1.890465542511674535e-01,-4.936806094609994311e+00
2.338209338387113423e+00,1.832567974762651097e-01,-4.938154262267846484e+00
2.317057855328183980e+00,1.774448677735063207e-01,-4.939523708783883471e+00
2.295740313728910298e+00,1.715680882172319066e-01,-4.940919947587746996e+00
2.274259157379728169e+00,1.656467243866655004e-01,-4.942340803109902758e+00
2.252617843350034565e+00,1.597017571167680394e-01,-4.943783831559914965e+00
2.230800099571805806e+00,1.536912247376176488e-01,-4.945254635774392504e+00
2.208805747231107564e+00,1.476258560852738988e-01,-4.946752142869729418e+00
2.186631984909635396e+00,1.415080353455278050e-01,-4.948276323043603320e+00
2.164276666840177388e+00,1.353422924713822972e-01,-4.949826997482079882e+00
2.141732640465360493e+00,1.291174217896196019e-01,-4.951405775510568041e+00
2.118991322716337056e+00,1.228205486969682347e-01,-4.953014683686990161e+00
2.096057005127530903e+00,1.164747997956010472e-01,-4.954651099406976122e+00
2.072925873001676411e+00,1.100804135040971410e-01,-4.956315380298394579e+00
2.049594230850797505e+00,1.036371514038774144e-01,-4.958007824384469409e+00
2.026049800118070454e+00,9.712307898566452380e-02,-4.959731680118340869e+00
2.002296037872892231e+00,9.055846182868210192e-02,-4.961484622918862719e+00
1.978320188721280903e+00,8.392065016791550036e-02,-4.963270020448464770e+00
1.954135127266507954e+00,7.725375144049850817e-02,-4.965082538091439623e+00
1.929745741089444966e+00,7.057874648139206286e-02,-4.966919821464318652e+00
1.905121631821256489e+00,6.383030859992233630e-02,-4.968790751659173388e+00
1.880257911881070942e+00,5.700772254035202380e-02,-4.970695805513162036e+00
1.855159111221891255e+00,5.013363806769577380e-02,-4.972632479631204028e+00
1.829818434914213032e+00,4.320209471747604724e-02,-4.974601995908517260e+00
1.804212398727994771e+00,3.617136923835007067e-02,-4.976610255204934496e+00
1.778356142243009419e+00,2.908699957892624255e-02,-4.978651773893136401e+00
1.752233691414457173e+00,2.192514388129440661e-02,-4.980730187856454272e+00
1.725850768288236470e+00,1.470916716620651599e-02,-4.982842874490517993e+00
1.699188180168729634e+00,7.409028692695773799e-03,-4.984994304143685717e+00
1.672232456406217427e+00,9.231253120578486460e-06,-4.987187099420327563e+00
1.645001478394132466e+00,-7.441587762382351201e-03,-4.989415359460610766e+00
1.617475099762540669e+00,-1.497299225762160901e-02,-4.991683524810571093e+00
1.589657015999418110e+00,-2.256614716484817151e-02,-4.993989628516930956e+00
1.561517543991666646e+00,-3.026825936272414808e-02,-4.996340614520806689e+00
1.533062644203763814e+00,-3.805405648186477308e-02,-4.998733711206216235e+00
1.504285879334073872e+00,-4.592401535942824964e-02,-5.001169604026574511e+00
1.475163288315397114e+00,-5.391056092217239026e-02,-5.003653329574365038e+00
1.445716686447721333e+00,-6.195981057122024183e-02,-5.006178241931695361e+00
1.415906377037626118e+00,-7.013256104424270276e-02,-5.008753311597604174e+00
1.385735340317350239e+00,-7.840926201775344495e-02,-5.011376571618813891e+00
1.355171985825162739e+00,-8.683235199883254651e-02,-5.014054638110894579e+00
1.324253745277982564e+00,-9.532124550774367933e-02,-5.016777169667977709e+00
1.292941518028837056e+00,-1.039317324919966090e-01,-5.019552630149621386e+00
1.261225648125272603e+00,-1.126652434630659450e-01,-5.022382062637109179e+00
1.229116864403348774e+00,-1.214895919127729762e-01,-5.025261741840142626e+00
1.196601577004056782e+00,-1.304138377471235621e-01,-5.028193873130578417e+00
1.163642831047635884e+00,-1.394844725890425075e-01,-5.031185758077401537e+00
1.130266137322049946e+00,-1.486449912352827418e-01,-5.034230422937173266e+00
1.096450753410917134e+00,-1.579139903350141871e-01,-5.037331324779290576e+00
1.062159962853055806e+00,-1.673353389067915309e-01,-5.040495705568093676e+00
1.027411647041898579e+00,-1.768639758391645778e-01,-5.043718200885552783e+00
9.921616985403116651e-01,-1.865533068938520778e-01,-5.047007393800515551e+00
9.564334823690470166e-01,-1.963513568206098903e-01,-5.050356876813668627e+00
3.007621996005636067e+00,-1.675954535765913356e-01,-4.996386182271737475e+00
3.005407027801137776e+00,1.576701924042436254e-01,-4.954517793618935961e+00
2.999887309869390339e+00,3.641745373444291722e-01,-4.927977454625863452e+00
2.982619471748929829e+00,3.594421669678422582e-01,-4.928729724847573657e+00
2.965276665886503071e+00,3.546757027344438207e-01,-4.929500472509164233e+00
2.947859831055265278e+00,3.499113842682572972e-01,-4.930285078250665087e+00
2.930364288290601582e+00,3.451110645966264379e-01,-4.931088548862237353e+00
2.912789858778577656e+00,3.402950092987748754e-01,-4.931908440553445239e+00
2.895132847031217427e+00,3.354431912140580785e-01,-4.932747435533303637e+00
2.877393163641553731e+00,3.305746838288041722e-01,-4.933603149616021533e+00
2.859568901260953755e+00,3.256882950501176488e-01,-4.934475880824822802e+00
2.841654963692289204e+00,3.207558914856645238e-01,-4.935369443856973071e+00
2.823654599388700337e+00,3.158225342468949925e-01,-4.936278027259606738e+00
2.805559255083661885e+00,3.108345791535112035e-01,-4.937208843194741625e+00
2.787371493776899189e+00,3.058287426666947972e-01,-4.938157153093118090e+00
2.769089378317457051e+00,3.008055016236039769e-01,-4.939123135768670458e+00
2.750710971554380269e+00,2.957639023499223363e-01,-4.940106970035333056e+00
2.732228435476880879e+00,2.906660362915727269e-01,-4.941113781892556567e+00
2.713648416002851338e+00,2.855696007446977269e-01,-4.942136239969033618e+00
2.694962747295957417e+00,2.804354950623246800e-01,-4.943179559671182055e+00
2.676169074972730488e+00,2.752634808258744847e-01,-4.944243949615258593e+00
2.657268471916776509e+00,2.700728699402543675e-01,-4.945327025615472216e+00
2.638255126675229878e+00,2.648438736633988988e-01,-4.946431589090127368e+00
2.619126506050687642e+00,2.595752999024125707e-01,-4.947557967864770312e+00
2.599884159763913960e+00,2.542881294922563207e-01,-4.948703598939675707e+00
2.580521650513273091e+00,2.489613815979692113e-01,-4.949871402942437548e+00
2.561040826042753071e+00,2.436150833801957738e-01,-4.951058936082620043e+00
2.541430540283780903e+00,2.382094189362260472e-01,-4.952271681987542529e+00
2.521696813305478901e+00,2.327834889130326879e-01,-4.953504663669366259e+00
2.501836366852384419e+00,2.273334786133500707e-01,-4.954758596383828539e+00
2.481836981972318501e+00,2.218181416229936254e-01,-4.956039172374505419e+00
2.461706347664457173e+00,2.162815853790971410e-01,-4.957340729200143237e+00
2.441436834534269185e+00,2.107033058838578832e-01,-4.958666217290658373e+00
2.421025641163450093e+00,2.050833031372758519e-01,-4.960015934669274706e+00
2.400469787319761128e+00,1.994213387207719457e-01,-4.961390149556893725e+00
2.379766054352384419e+00,1.937159821228715550e-01,-4.962789219581384081e+00
2.358917184074979634e+00,1.879882141785356175e-01,-4.964210671149987597e+00
2.337908990582090230e+00,1.821967884735795629e-01,-4.965660226308602709e+00
2.316749758919339985e+00,1.763822361664506566e-01,-4.967132788860101122e+00
2.295424528320890278e+00,1.705035492615434300e-01,-4.968634080850381274e+00
2.273934967716794819e+00,1.645781323151322972e-01,-4.970162135326165576e+00
2.252283818920713276e+00,1.586245819763871800e-01,-4.971714627706307787e+00
2.230455703934293599e+00,1.526040360169145238e-01,-4.973297160827416796e+00
2.208449549873929829e+00,1.465250775055619847e-01,-4.974908930026788134e+00
2.186262912949186177e+00,1.403908058838578832e-01,-4.976549756490487475e+00
2.163894481857877583e+00,1.342086121277543675e-01,-4.978219014369744677e+00
2.141340441902738423e+00,1.279773041443559300e-01,-4.979917210304040331e+00
2.118590183456998677e+00,1.216775700287553441e-01,-4.981647294723290820e+00
2.095647044380765767e+00,1.153291985230180394e-01,-4.983406943046349902e+00
2.072507209976774067e+00,1.089324280457231175e-01,-4.985196453296441454e+00
2.049166507919889302e+00,1.024865433411332738e-01,-4.987016361915368456e+00
2.025613255699735493e+00,9.597008673712936755e-02,-4.988869917356271166e+00
2.001850433548551411e+00,8.940308539435593005e-02,-4.990754795038003344e+00
1.977865286072355122e+00,8.276241271064010974e-02,-4.992674630843896288e+00
1.953670687874418110e+00,7.609241454169479724e-02,-4.994623672925729174e+00
1.929271884163480610e+00,6.941454855963913317e-02,-4.996599298679131884e+00
1.904638357361417622e+00,6.266348807379928942e-02,-4.998611074649590869e+00
1.879765100678068013e+00,5.583827940985885974e-02,-5.000659507476586718e+00
1.854656405647855610e+00,4.896061865851608630e-02,-5.002742093765038867e+00
1.829305954178434224e+00,4.202669112250534411e-02,-5.004859846793908495e+00
1.803690381249051899e+00,3.499358145758835192e-02,-5.007019233667153735e+00
1.777823991974454731e+00,2.790635077521530505e-02,-5.009214472734231371e+00
1.751691527565580220e+00,2.074115721747604724e-02,-5.011449408494729418e+00
1.725297994812589497e+00,1.352136580512253161e-02,-5.013721269332665820e+00
1.698624201019864888e+00,6.216935797187961299e-03,-5.016034913026589770e+00
1.671656675537687153e+00,-1.189060525443874639e-03,-5.018393230401772875e+00
1.644411630829435200e+00,-8.650131539848171514e-03,-5.020790260993737597e+00
1.616870470245939106e+00,-1.619274170830520276e-02,-5.023230385743874926e+00
1.589038915833097310e+00,-2.379424126580031995e-02,-5.025710892640847582e+00
1.560888357361417622e+00,-3.149945290520461683e-02,-5.028238874637383837e+00
1.532422013481717915e+00,-3.928882630303176526e-02,-5.030812215768594164e+00
1.503633923729520649e+00,-4.716212304070266370e-02,-5.033431512080926318e+00
1.474499650200467915e+00,-5.515224488213332776e-02,-5.036102306806344409e+00
1.445041485031705708e+00,-6.320459397270949964e-02,-5.038817298375863452e+00
1.415215201576810689e+00,-7.138831170037063245e-02,-5.041587364637154955e+00
1.385031171043973774e+00,-7.967025788262160901e-02,-5.044408422672051806e+00
1.354455776413541646e+00,-8.809668572380813245e-02,-5.047288131677407641e+00
1.323525138100248189e+00,-9.658939392998489026e-02,-5.050215703212518115e+00
1.292199917038541646e+00,-1.052041724486616481e-01,-5.053200256788033862e+00
1.260473556717496724e+00,-1.139376834197309840e-01,-5.056242179834145922e+00
1.228358812531095356e+00,-1.227544024749067653e-01,-5.059337002002496142e+00
1.195839233597379536e+00,-1.316681578917768825e-01,-5.062487763129968066e+00
1.162872977455716939e+00,-1.407337859435346950e-01,-5.065703582727212329e+00
1.129483647545438618e+00,-1.498974040313032496e-01,-5.068977338039178271e+00
1.095655150612455220e+00,-1.591704562468794215e-01,-5.072311770879525561e+00
3.007595606049161763e+00,-1.681326106353071559e-01,-5.026041638814706225e+00
3.005389474233251423e+00,1.573526188568803441e-01,-4.981220138036507983e+00
2.999951876600843281e+00,3.652254864411088597e-01,-4.952637922727364916e+00
2.982690654595952839e+00,3.604952618317338597e-01,-4.953442376815575976e+00
2.965354494651418538e+00,3.557307049469682347e-01,-4.954266560041207690e+00
2.947944305738073201e+00,3.509682938294145238e-01,-4.955105614625710864e+00
2.930455572804075093e+00,3.461710735993119847e-01,-4.955964666568536181e+00
2.912887878616910786e+00,3.413569256500932347e-01,-4.956841450893182177e+00
2.895237781008344502e+00,3.365086838440629613e-01,-4.957738441192407031e+00
2.877504981955152363e+00,3.316427990631791722e-01,-4.958653432094354052e+00
2.859687693317991108e+00,3.267595097260209691e-01,-4.959586572610635180e+00
2.841780938109021992e+00,3.218313976959916722e-01,-4.960541766845483203e+00
2.823788024386030049e+00,3.169044777588578832e-01,-4.961512845718163867e+00
2.805700249870878071e+00,3.119224831299516332e-01,-4.962507647239465136e+00
2.787520117958646626e+00,3.069230839447709691e-01,-4.963521164619225878e+00
2.769245631893735737e+00,3.019053265289994847e-01,-4.964553695880669970e+00
2.750874437292676777e+00,2.968661114411088597e-01,-4.965605747663278002e+00
2.732399172981839985e+00,2.917703911499711644e-01,-4.966682386361855883e+00
2.713826455076795430e+00,2.866761013703080785e-01,-4.967775773965615649e+00
2.695148058136564106e+00,2.815436646179887425e-01,-4.968891513311166186e+00
2.676361717184644551e+00,2.763737961487504613e-01,-4.970029753410119433e+00
2.657468445499997944e+00,2.711850926117631566e-01,-4.971188020669717211e+00
2.638462491234403462e+00,2.659577652649613988e-01,-4.972369295322198290e+00
2.619341440399747700e+00,2.606918141083451879e-01,-4.973573756181496996e+00
2.600106723507505269e+00,2.554070278839799535e-01,-4.974798810445565600e+00
2.580751784046750874e+00,2.500821873383256566e-01,-4.976047676765221972e+00
2.561278588970762105e+00,2.447385117249223363e-01,-4.977317553722161669e+00
2.541675932606321187e+00,2.393345162110063207e-01,-4.978614520990151782e+00
2.521950013836484761e+00,2.339109703736039769e-01,-4.979933005534905810e+00
2.502097375591855855e+00,2.284633442597123754e-01,-4.981273901426095385e+00
2.482105977734189839e+00,2.229508682923051488e-01,-4.982643228732842822e+00
2.461983211239438862e+00,2.174162193970414769e-01,-4.984035116397637744e+00
2.441721625527006001e+00,2.118400856690141332e-01,-4.985452634059686083e+00
2.421318419178586812e+00,2.062224671082231175e-01,-4.986895960532922167e+00
2.400770671566587300e+00,2.005628868775102269e-01,-4.988365513049859423e+00
2.380074985226255269e+00,1.948596760468217504e-01,-4.989861679040688891e+00
2.359234399994474263e+00,1.891345307068559300e-01,-4.991381716691750903e+00
2.338234491547208638e+00,1.833454891876908910e-01,-4.992931854688424487e+00
2.317083485325437398e+00,1.775333210663530004e-01,-4.994506579601067919e+00
2.295766778191190571e+00,1.716572567658158910e-01,-4.996112000905770678e+00
2.274284191330533833e+00,1.657292172150346410e-01,-4.997746777498025317e+00
2.252638347347837300e+00,1.597680374817582738e-01,-4.999408465587396044e+00
2.230815417965513081e+00,1.537396237091752660e-01,-5.001102310382623095e+00
2.208816058834653706e+00,1.476578041748735082e-01,-5.002826642953652758e+00
2.186637766560178608e+00,1.415254399018022191e-01,-5.004581403695840258e+00
2.164277858933072896e+00,1.353456303314897191e-01,-5.006366533004540820e+00
2.141732521256070942e+00,1.291169449524613988e-01,-5.008182507716912646e+00
2.118991084297757954e+00,1.228195950226518285e-01,-5.010032665693063159e+00
2.096056528290372700e+00,1.164736077027055394e-01,-5.011914473735589404e+00
2.072925276955228657e+00,1.100785061554643285e-01,-5.013828289472360034e+00
2.049593754013639302e+00,1.036359593109819066e-01,-5.015774351321954150e+00
2.026049204071622700e+00,9.712141005561081286e-02,-5.017756622993249316e+00
2.002295561035734028e+00,9.055703131720749255e-02,-5.019772362672585864e+00
1.978319592674833149e+00,8.391898123786178942e-02,-5.021825385057229418e+00
1.954134054382901997e+00,7.725112883612839099e-02,-5.023909759485024829e+00
1.929744668205839009e+00,7.057588545844284411e-02,-5.026022475921410937e+00
1.905120320519071431e+00,6.382697073981491442e-02,-5.028173935376901049e+00
1.880256600578885884e+00,5.700462309882370349e-02,-5.030364495479363818e+00
1.855157561501127095e+00,5.012982337043014880e-02,-5.032591563426751513e+00
1.829816646774869771e+00,4.319828002021042224e-02,-5.034856331311959643e+00
1.804210849007230610e+00,3.616779295966354724e-02,-5.037165594064492602e+00
1.778354234894376606e+00,2.908294646308151599e-02,-5.039513212405938525e+00
1.752231784065824360e+00,2.192085234687057849e-02,-5.041903209649819750e+00
1.725848145683866353e+00,1.470344512030807849e-02,-5.044332814180154223e+00
1.699184723099332661e+00,7.401876135322726924e-03,-5.046806973182458300e+00
1.672226615151029439e+00,-2.928094413601201040e-06,-5.049329262935418505e+00
1.644990034302335591e+00,-7.464714364555202764e-03,-5.051893216335076708e+00
1.617457575996976704e+00,-1.500827820732864026e-02,-5.054503214322823901e+00
1.589635558327298970e+00,-2.260882409050735120e-02,-5.057156157457131762e+00
1.561495013435941548e+00,-3.031236679985793714e-02,-5.059859824144143481e+00
1.533038921555143208e+00,-3.809983284905227308e-02,-5.062611949407357592e+00
1.504261083801847310e+00,-4.597122223809035901e-02,-5.065413188897866625e+00
1.475137777527433247e+00,-5.395824463799270276e-02,-5.068269324266213793e+00
1.445690341194730610e+00,-6.200844796135696058e-02,-5.071172875129479785e+00
3.007343999942403645e+00,-1.732543185515669215e-01,-5.056453597509164233e+00
3.005155540903669209e+00,1.531206890778276097e-01,-5.008569461070794482e+00
2.999875701864820332e+00,3.639854714112016332e-01,-4.977677327358025927e+00
2.982606701453786702e+00,3.592533394531938207e-01,-4.978534740173119921e+00
2.965262733300786824e+00,3.544866368012162816e-01,-4.979413253032464404e+00
2.947844676574331135e+00,3.497218414978715550e-01,-4.980307590924996752e+00
2.930348046024900288e+00,3.449224755005571019e-01,-4.981223297082681079e+00
2.912772484024625630e+00,3.401066586212846410e-01,-4.982157778703469653e+00
2.895114399393659443e+00,3.352555557923051488e-01,-4.983113926612634081e+00
2.877373583515745015e+00,3.303877636627885472e-01,-4.984089207612771411e+00
2.859548307856183857e+00,3.255023285584184300e-01,-4.985083800517815966e+00
2.841634578903776021e+00,3.205816075043412816e-01,-4.986100536548394579e+00
2.823634810646634907e+00,3.156620785431596410e-01,-4.987134140693444628e+00
2.805540271004300923e+00,3.106877133087846410e-01,-4.988193047010201830e+00
2.787353522976499409e+00,3.056964203552934300e-01,-4.989271801673669238e+00
2.769072271784406514e+00,3.006851002411576879e-01,-4.990371060334939379e+00
2.750693149765592427e+00,2.956437393860551488e-01,-4.991492402517098803e+00
2.732209838827710957e+00,2.905458733277055394e-01,-4.992640000545281787e+00
2.713629104097944111e+00,2.854496761994096410e-01,-4.993805330955285449e+00
2.694942690332990498e+00,2.803155705170365941e-01,-4.994994533025521655e+00
2.676148243149381489e+00,2.751433178620072972e-01,-4.996207725965279955e+00
2.657246775826078267e+00,2.699524685578080785e-01,-4.997442287170190234e+00
2.638232655724149556e+00,2.647229954437944066e-01,-4.998701345884103198e+00
2.619103260239225239e+00,2.594546601013871800e-01,-4.999985170327920336e+00
2.599860139092069478e+00,2.541674896912309300e-01,-5.001290929281014819e+00
2.580496974190336079e+00,2.488412186341020238e-01,-5.002621990405816454e+00
2.561015374859433980e+00,2.434951588349076879e-01,-5.003975522481698412e+00
2.541404314240079731e+00,2.380890175537797582e-01,-5.005357843601006884e+00
2.521669693192106099e+00,2.326626106934281957e-01,-5.006763291322488207e+00
2.501808889111142964e+00,2.272147461609574925e-01,-5.008192223274011035e+00
2.481809086998563618e+00,2.217006012634965550e-01,-5.009651643001336474e+00
2.461677677830320210e+00,2.161640450196000707e-01,-5.011135172807473559e+00
2.441407330235105366e+00,2.105855271057817113e-01,-5.012646031343240161e+00
2.420995362003904194e+00,2.049655243591996800e-01,-5.014184457027215380e+00
2.400438852509122700e+00,1.993037983612748754e-01,-5.015750688277978320e+00
2.379734225472074360e+00,1.935982033447953832e-01,-5.017345440351266284e+00
2.358884520729642720e+00,1.878699585633012425e-01,-5.018965673410195727e+00
2.337874837120633931e+00,1.820761486725541722e-01,-5.020618271791238207e+00
2.316712923248868794e+00,1.762553974823686254e-01,-5.022297692262429614e+00
2.295384354790311665e+00,1.703683659271928441e-01,-5.024010163509148974e+00
2.273888952931028218e+00,1.644262596802446019e-01,-5.025754404031533618e+00
2.252229459484678120e+00,1.584493443207475316e-01,-5.027527582608956713e+00
2.230392940243345112e+00,1.524059101776811254e-01,-5.029334884845513720e+00
2.208381898602109761e+00,1.463159844116899144e-01,-5.031173717939156909e+00
2.186193354328733296e+00,1.401802822785112035e-01,-5.033044201099175829e+00
2.163823313912015767e+00,1.339976116852494847e-01,-5.034946960174340624e+00
2.141267605026822896e+00,1.277658268646928441e-01,-5.036882650815743823e+00
2.118516035278898091e+00,1.214658543305131566e-01,-5.038854670488137621e+00
2.095570988854032368e+00,1.151165291504594457e-01,-5.040860545598763842e+00
2.072429366310697407e+00,1.087192818360063207e-01,-5.042900395356912036e+00
2.049087233742338032e+00,1.022731587128373754e-01,-5.044974756204385180e+00
2.025532074173551411e+00,9.575598685309616442e-02,-5.047087621652383227e+00
2.001767583092313618e+00,8.918827025458542224e-02,-5.049236220084924120e+00
1.977780528267484517e+00,8.254688231513229724e-02,-5.051424604617852587e+00
1.953584022720914692e+00,7.587545363471237536e-02,-5.053646367751855273e+00
1.929183311661344380e+00,6.919687239691940661e-02,-5.055898410045403857e+00
1.904547758301359028e+00,6.244485823676315661e-02,-5.058191639148492236e+00
1.879672713478666157e+00,5.561917273566452380e-02,-5.060526591502923388e+00
1.854562230309110493e+00,4.874127356574264880e-02,-5.062900435888070483e+00
1.829209990700345845e+00,4.180663077399460192e-02,-5.065314394199151415e+00
1.803592391213041157e+00,3.477256743476120349e-02,-5.067775887214440722e+00
1.777724213799100728e+00,2.768485991522995349e-02,-5.070278179609078784e+00
3.005142517288785786e+00,1.528853699402543675e-01,-5.035440635644692797e+00
2.999947823484998555e+00,3.651594444946977269e-01,-5.002426546775597949e+00
2.982686169346433491e+00,3.604289814667436254e-01,-5.003336441480416674e+00
2.965349607070546956e+00,3.556644245819780004e-01,-5.004268628322381396e+00
2.947938971122365803e+00,3.509012982086869847e-01,-5.005217653476495165e+00
2.930449820955854268e+00,3.461043163971635472e-01,-5.006189268790978808e+00
2.912881709536176533e+00,3.412901684479447972e-01,-5.007180881463784594e+00
2.895231194695096821e+00,3.364414498047563207e-01,-5.008195412122506518e+00
2.877497948607068867e+00,3.315755650238725316e-01,-5.009230327569741625e+00
2.859680272539716572e+00,3.266925141052934300e-01,-5.010285687410134692e+00
2.841774172981839985e+00,3.217737003998490941e-01,-5.011364561282891650e+00
2.823782183130842061e+00,3.168570324616166722e-01,-5.012461197339791674e+00
2.805695362290006489e+00,3.118848129944535863e-01,-5.013584804498452563e+00
2.787516333063703389e+00,3.068951889710160863e-01,-5.014729541503686328e+00
2.769242949684720845e+00,3.018864914612504613e-01,-5.015895885192651171e+00
2.750872470339399189e+00,2.968525215821000707e-01,-5.017084908448953051e+00
2.732397861679654927e+00,2.917618080811235082e-01,-5.018301826679009814e+00
2.713825948437314839e+00,2.866730019287797582e-01,-5.019537579976815600e+00
2.695148475369077534e+00,2.815462872223588597e-01,-5.020798605644006152e+00
2.676362819870572896e+00,2.763799950318071019e-01,-5.022085350715417285e+00
2.657469577988248677e+00,2.711910530762406957e-01,-5.023395341598290820e+00
2.638463742931943745e+00,2.659644409851762425e-01,-5.024731290303964037e+00
2.619342632492643208e+00,2.606980129914018285e-01,-5.026093584262627978e+00
