-5.436233299033291111e+00,1.036406904458999634e-01,5.172625935465405833e-01
-5.416848210459539459e+00,1.038328111171722412e-01,5.265001078024466041e-01
-5.397377866500717936e+00,1.040301322937011719e-01,5.357586296787471003e-01
-5.377833812847483408e+00,1.042320951819419861e-01,5.450540223611197721e-01
-5.358225601183760567e+00,1.044382080435752869e-01,5.543991139717588945e-01
-5.338525142529430667e+00,1.046497002243995667e-01,5.637674280474984645e-01
-5.318757138721845301e+00,1.048654243350028992e-01,5.731874978106890062e-01
-5.298901637111738339e+00,1.050862297415733337e-01,5.826418101933955596e-01
-5.278961963388969281e+00,1.053119227290153503e-01,5.921367955470197009e-01
-5.258930817922106371e+00,1.055427864193916321e-01,6.016681848667718713e-01
-5.238828369571215227e+00,1.057778969407081604e-01,6.112587805549859477e-01
-7.077733982694164538e+00,7.340386509895324707e-02,-2.634510842367066008e-01
-7.058723995933997131e+00,7.328494638204574585e-02,-2.544104743074157016e-01
-7.039774637433502846e+00,7.316918671131134033e-02,-2.453995601107055169e-01
-7.020887977020579207e+00,7.305613160133361816e-02,-2.363988521336652937e-01
-7.002054218145610243e+00,7.294667512178421021e-02,-2.274477742075714515e-01
-6.983275619298948911e+00,7.284032553434371948e-02,-2.185254173899671137e-01
-6.964554888579971959e+00,7.273662835359573364e-02,-2.096111950498873444e-01
-6.945885973136112668e+00,7.263602316379547119e-02,-2.007250976699592737e-01
-6.927267019391086578e+00,7.253852486610412598e-02,-1.918670370560220384e-01
-6.908696421793332654e+00,7.244408130645751953e-02,-1.830360005165978521e-01
-6.890178470325020399e+00,7.235214114189147949e-02,-1.742073241990655941e-01
-6.871701302700292224e+00,7.226364314556121826e-02,-1.654220011579672356e-01
-6.853274648600248042e+00,7.217754423618316650e-02,-1.566347834214405488e-01
-6.834890174035445298e+00,7.209444791078567505e-02,-1.478717936463820326e-01
-6.816551481163273252e+00,7.201389968395233154e-02,-1.391133310810495072e-01
-6.798250677159122013e+00,7.193642854690551758e-02,-1.303824487257525533e-01
-6.779986826385571597e+00,7.186196744441986084e-02,-1.216760737070283760e-01
-6.761757866901652037e+00,7.179052382707595825e-02,-1.129945650449317718e-01
-6.743568201188291589e+00,7.172163575887680054e-02,-1.043176381046957424e-01
-6.725416278578535412e+00,7.165530323982238770e-02,-9.564550085679512925e-02
-6.707292631145361561e+00,7.159212976694107056e-02,-8.700358950017061943e-02
-6.689190507548803843e+00,7.153245806694030762e-02,-7.840668432877340166e-02
-6.671114398289613945e+00,7.147581875324249268e-02,-6.983451639594995264e-02
-6.653076519353265716e+00,7.142123579978942871e-02,-6.124470263282599802e-02
-6.635055423123636942e+00,7.137011736631393433e-02,-5.269711261750287257e-02
-6.617062463342115564e+00,7.132154703140258789e-02,-4.415284223896720484e-02
-6.599096901605711274e+00,7.127548754215240479e-02,-3.560958030540684049e-02
-6.581157576811841992e+00,7.123192399740219116e-02,-2.706687769307336566e-02
-6.563229052617549186e+00,7.119175791740417480e-02,-1.856242650320005794e-02
-6.545330849457257294e+00,7.115364074707031250e-02,-1.003867760385968033e-02
-6.527446685034220764e+00,7.111851125955581665e-02,-1.535351902042458860e-03
-6.509581842582181643e+00,7.108595967292785645e-02,6.965983025509103754e-03
-6.491727953823792419e+00,7.105638086795806885e-02,1.544792896669111570e-02
-6.473897831906905154e+00,7.102894037961959839e-02,2.394670815752797388e-02
-6.456075352620295860e+00,7.100450992584228516e-02,3.242620415380303989e-02
-6.438258169323348490e+00,7.098312675952911377e-02,4.088513997485843099e-02
-6.420461491230049944e+00,7.096384465694427490e-02,4.936366996331909007e-02
-6.402666881732986148e+00,7.094761729240417480e-02,5.782221500741213660e-02
-6.384881224712975367e+00,7.093399018049240112e-02,6.628037529644381642e-02
-6.367103597582234542e+00,7.092294096946716309e-02,7.473976832240203372e-02
-6.349326142228219005e+00,7.091481238603591919e-02,8.318653758350014193e-02
-6.331550373409645438e+00,7.090944796800613403e-02,9.162816272821716623e-02
-6.313762937832346545e+00,7.090745866298675537e-02,1.000396578857418728e-01
-6.295984943060548567e+00,7.090767472982406616e-02,1.084698131501042884e-01
-6.278206553819892122e+00,7.091054320335388184e-02,1.169014917777695395e-01
-6.260417633291459616e+00,7.091649621725082397e-02,1.253168842428653562e-01
-6.242633208168260950e+00,7.092472910881042480e-02,1.337503651970870511e-01
-6.224835108033800246e+00,7.093606144189834595e-02,1.421686046586356778e-01
-6.207038745350187625e+00,7.094968110322952271e-02,1.506054241702206031e-01
-6.189252864909512653e+00,7.096511870622634888e-02,1.590803344196438651e-01
-6.171467631437411505e+00,7.098281383514404297e-02,1.675761986633714784e-01
-6.153672044761671955e+00,7.100322842597961426e-02,1.760751190784073383e-01
-6.135872663337707422e+00,7.102599740028381348e-02,1.845921525131954954e-01
-6.118049832907098917e+00,7.105197757482528687e-02,1.930944756327701572e-01
-6.100220357404182003e+00,7.108033448457717896e-02,2.016159041482796788e-01
-6.082373311626924739e+00,7.111151516437530518e-02,2.101399799300889271e-01
-6.064505251416498766e+00,7.114560902118682861e-02,2.186636842050189156e-01
-6.046622609723403485e+00,7.118227332830429077e-02,2.272013696629475721e-01
-6.028709920223168872e+00,7.122212648391723633e-02,2.357301222781711392e-01
-6.010778081463946876e+00,7.126463949680328369e-02,2.442710062736437315e-01
-5.992819426553929851e+00,7.131009548902511597e-02,2.528149745841914431e-01
-5.974832630845925863e+00,7.135848701000213623e-02,2.613627476586841691e-01
-5.956826113152014379e+00,7.140940427780151367e-02,2.699309881744316186e-01
-5.938798188600566519e+00,7.146289199590682983e-02,2.785197542567088291e-01
-5.920736716556973533e+00,7.151938974857330322e-02,2.871125622312140635e-01
-5.902649311714498026e+00,7.157853245735168457e-02,2.957242806890214570e-01
-5.884524084448354841e+00,7.164076715707778931e-02,3.043398342729619621e-01
-5.866370559788593120e+00,7.170565426349639893e-02,3.129766571985486134e-01
-5.848187170223349440e+00,7.177321612834930420e-02,3.216347866735715932e-01
-5.829959922906500225e+00,7.184395939111709595e-02,3.302968582709152612e-01
-5.811709092585090275e+00,7.191704958677291870e-02,3.389951003815884212e-01
-5.793412115442130528e+00,7.199332118034362793e-02,3.476993878359188050e-01
-5.775077636864067721e+00,7.207238674163818359e-02,3.564256164001931015e-01
-5.756703134170644276e+00,7.215431332588195801e-02,3.651725404699811550e-01
-5.738286134661724880e+00,7.223914563655853271e-02,3.739398742364273831e-01
-5.719824836105924959e+00,7.232691347599029541e-02,3.827276967422926779e-01
-5.701318198555696881e+00,7.241761684417724609e-02,3.915376463970504650e-01
-5.682754758881119805e+00,7.251162827014923096e-02,4.003577201148044162e-01
-5.664118160750546416e+00,7.260949909687042236e-02,4.091695216660462542e-01
-5.645441582938683922e+00,7.270997017621994019e-02,4.180199318220618743e-01
-5.626698170406716493e+00,7.281398028135299683e-02,4.268771684949805856e-01
-5.607908433730420583e+00,7.292075455188751221e-02,4.357700275801023038e-01
-5.589058370809312670e+00,7.303074747323989868e-02,4.446838102349974786e-01
-5.570160297763040447e+00,7.314349710941314697e-02,4.536366640881079881e-01
-5.551196282602940180e+00,7.325958460569381714e-02,4.626095050416640930e-01
-5.532167748827236942e+00,7.337893545627593994e-02,4.716069228986798922e-01
-5.513087758549118256e+00,7.350106537342071533e-02,4.806471745022065090e-01
-5.493966550211561106e+00,7.362559437751770020e-02,4.897449029781590912e-01
-5.474779320907754432e+00,7.375334203243255615e-02,4.988730461737759247e-01
-5.455528767693781589e+00,7.388418167829513550e-02,5.080379043083640411e-01
-5.436209920733917400e+00,7.401825487613677979e-02,5.172367305360565659e-01
-5.416824279051177804e+00,7.415547221899032593e-02,5.264738590228603687e-01
-5.397354018762299255e+00,7.429638504981994629e-02,5.357328503382051688e-01
-5.377809453835049602e+00,7.444062829017639160e-02,5.450280919709976635e-01
-5.358202197339720030e+00,7.458779960870742798e-02,5.543744663938565687e-01
-5.338501663160599264e+00,7.473883777856826782e-02,5.637430361066037010e-01
-5.318733148078998774e+00,7.489291578531265259e-02,5.731629548202140656e-01
-5.298877964858355938e+00,7.505059987306594849e-02,5.826176948069938799e-01
-5.278935995029700123e+00,7.521184533834457397e-02,5.921106676451656226e-01
-5.258902670816710589e+00,7.537678629159927368e-02,6.016400235319794287e-01
-5.238796820141958577e+00,7.554479688405990601e-02,6.112278351665370035e-01
-7.077833687714479183e+00,4.403043538331985474e-02,-2.629108817035779033e-01
-7.058826798023974725e+00,4.395911097526550293e-02,-2.538720346566852859e-01
-7.039880425417007537e+00,4.388968273997306824e-02,-2.448633478788815321e-01
-7.020997213257231806e+00,4.382184520363807678e-02,-2.358625279695840682e-01
-7.002166523945732024e+00,4.375619068741798401e-02,-2.269132080233529081e-01
-6.983390768642775193e+00,4.369241744279861450e-02,-2.179935376049567664e-01
-6.964673218322210424e+00,4.363021254539489746e-02,-2.090803664714875332e-01
-6.946007279261952938e+00,4.356987401843070984e-02,-2.001962526395439923e-01
-6.927391343735500584e+00,4.351138696074485779e-02,-1.913399408540692459e-01
-6.908823211801939479e+00,4.345477372407913208e-02,-1.825127342425783006e-01
-6.890307202783379381e+00,4.339968413114547729e-02,-1.736899741818214160e-01
-6.871830673644876875e+00,4.334672540426254272e-02,-1.649154206815777179e-01
-6.853405970139736070e+00,4.329513385891914368e-02,-1.561333941257743163e-01
-6.835023684684633061e+00,4.324532672762870789e-02,-1.473744271632000391e-01
-6.816687691641569735e+00,4.319702088832855225e-02,-1.386181410304032635e-01
-6.798389884661204974e+00,4.315054416656494141e-02,-1.298882771981455519e-01
-6.780128901056647450e+00,4.310587793588638306e-02,-1.211831397338685168e-01
-6.761902499052014903e+00,4.306304082274436951e-02,-1.125042664846094276e-01
-6.743715658672677193e+00,4.302171990275382996e-02,-1.038288118183423592e-01
-6.725566490222032456e+00,4.298193752765655518e-02,-9.515837633456225575e-02
-6.707444470644419177e+00,4.294409602880477905e-02,-8.652159863557606911e-02
-6.689344816507328595e+00,4.290831461548805237e-02,-7.792731318890155912e-02
-6.671271729261984973e+00,4.287433251738548279e-02,-6.935568388133050988e-02
-6.653236302940192637e+00,4.284160956740379333e-02,-6.076824466466468344e-02
-6.635218002704646345e+00,4.281094297766685486e-02,-5.222212169394002679e-02
-6.617228278461706026e+00,4.278178885579109192e-02,-4.367770147020411109e-02
-6.599266128303524326e+00,4.275413975119590759e-02,-3.513432106767222507e-02
-6.581330926836992390e+00,4.272795468568801880e-02,-2.658920508486040113e-02
-6.563406157600446988e+00,4.270382970571517944e-02,-1.808372792415546826e-02
-6.545510821609148877e+00,4.268096014857292175e-02,-9.561216579262232784e-03
-6.527629624869957681e+00,4.265988990664482117e-02,-1.058904171112873271e-03
-6.509767406722238192e+00,4.264036566019058228e-02,7.440509960910501874e-03
-6.491916142268167711e+00,4.262263327836990356e-02,1.592053510656432636e-02
-6.474089172219919419e+00,4.260616004467010498e-02,2.441899470355668456e-02
-6.456268915178223544e+00,4.259152710437774658e-02,3.289567286118644240e-02
-6.438455001109675280e+00,4.257868602871894836e-02,4.135426817091203411e-02
-6.420660888640816744e+00,4.256712645292282104e-02,4.983088782258748850e-02
-6.402869204992627239e+00,4.255739226937294006e-02,5.828818485349041012e-02
-6.385086456976581282e+00,4.254921525716781616e-02,6.674534230759676667e-02
-6.367311395470279578e+00,4.254259169101715088e-02,7.520282499676955723e-02
-6.349541992222568432e+00,4.253755137324333191e-02,8.365978354442393794e-02
-6.331775816922892375e+00,4.253412038087844849e-02,9.211447153085794426e-02
-6.313993711405753828e+00,4.253285378217697144e-02,1.005293758578447161e-01
-6.296219764991107581e+00,4.253295436501502991e-02,1.089605047993247311e-01
-6.278444636833699022e+00,4.253466427326202393e-02,1.173911178396083166e-01
-6.260658759513901828e+00,4.253823682665824890e-02,1.258052413740282649e-01
-6.242877176569634479e+00,4.254317656159400940e-02,1.342370048760159751e-01
-6.225082237003570107e+00,4.254997149109840393e-02,1.426539544894034339e-01
-6.207288917528592798e+00,4.255814105272293091e-02,1.510895050703127129e-01
-6.189505837431878987e+00,4.256740584969520569e-02,1.595624631479797273e-01
-6.171723245109006939e+00,4.257803037762641907e-02,1.680561614179143515e-01
-6.153931120546218381e+00,4.259026423096656799e-02,1.765544647671268841e-01
-6.136134740495917228e+00,4.260392114520072937e-02,1.850699945517173539e-01
-6.118314953273944923e+00,4.261950403451919556e-02,1.935710487406165914e-01
-6.100488361784930369e+00,4.263652116060256958e-02,2.020909945234139471e-01
-6.082643714292228942e+00,4.265524074435234070e-02,2.106122210903493830e-01
-6.064773980682960364e+00,4.267580807209014893e-02,2.191265365843952928e-01
-6.046885669432415789e+00,4.269802942872047424e-02,2.276480380584213759e-01
-6.028971867787476846e+00,4.272204264998435974e-02,2.361685127379147264e-01
-6.011042678322636057e+00,4.274754971265792847e-02,2.447079558356461959e-01
-5.993086949261493324e+00,4.277481138706207275e-02,2.532506761330037826e-01
-5.975103238597095689e+00,4.280383139848709106e-02,2.617974149963431252e-01
-5.957099487557325546e+00,4.283437877893447876e-02,2.703641936968639303e-01
-5.939074287825049758e+00,4.286646470427513123e-02,2.789512632443924556e-01
-5.921015900825063127e+00,4.290034994482994080e-02,2.875430370077438624e-01
-5.902930785052532769e+00,4.293584078550338745e-02,2.961526522442150533e-01
-5.884808843859698158e+00,4.297316074371337891e-02,3.047676201385607353e-01
-5.866658362408572636e+00,4.301207885146141052e-02,3.134031741334717402e-01
-5.848477898692202359e+00,4.305260628461837769e-02,3.220600555953045951e-01
-5.830254214003157465e+00,4.309502243995666504e-02,3.307217343876046600e-01
-5.812005429887019403e+00,4.313888773322105408e-02,3.394171900358605720e-01
-5.793710741814003917e+00,4.318464919924736023e-02,3.481193742688546422e-01
-5.775378669665648168e+00,4.323209077119827271e-02,3.568434786943069925e-01
-5.757007888794759332e+00,4.328121244907379150e-02,3.655902237610877403e-01
-5.738593572270040077e+00,4.333210736513137817e-02,3.743556262732631312e-01
-5.720135040368382384e+00,4.338475689291954041e-02,3.831419869639017817e-01
-5.701631764416253745e+00,4.343915730714797974e-02,3.919510952920571834e-01
-5.683076537706528875e+00,4.349543154239654541e-02,4.007764861072983242e-01
-5.664443183814293903e+00,4.355413094162940979e-02,4.095874672494232982e-01
-5.645769607376095678e+00,4.361440241336822510e-02,4.184363737552410090e-01
-5.627029791161749728e+00,4.367677867412567139e-02,4.272927272665861809e-01
-5.608242779304625003e+00,4.374082759022712708e-02,4.361838898169593248e-01
-5.589396790285335648e+00,4.380678758025169373e-02,4.450974307163905186e-01
-5.570501241028530615e+00,4.387442767620086670e-02,4.540481395131938935e-01
-5.551541458964980968e+00,4.394404217600822449e-02,4.630209525133226478e-01
-5.532522680121328307e+00,4.401549696922302246e-02,4.720248656926174791e-01
-5.513468130638159437e+00,4.408829659223556519e-02,4.810896439963147087e-01
-5.494356786447261776e+00,4.416286200284957886e-02,4.901931218010088243e-01
-5.475172709566699325e+00,4.423949867486953735e-02,4.993192500724126237e-01
-5.455925945554898959e+00,4.431797191500663757e-02,5.084829484909342279e-01
-5.436611323546432395e+00,4.439837858080863953e-02,5.176810216891476468e-01
-5.417229588425627185e+00,4.448067769408226013e-02,5.269169695423994160e-01
-5.397763192863711090e+00,4.456519335508346558e-02,5.361745455046696973e-01
-5.378222693693126999e+00,4.465170577168464661e-02,5.454688203059465668e-01
-5.358618631456012693e+00,4.473998397588729858e-02,5.548134145241148119e-01
-5.338921920168882451e+00,4.483057931065559387e-02,5.641803341642654956e-01
-5.319157470843949298e+00,4.492298886179924011e-02,5.735992860463602350e-01
-5.299306428904762001e+00,4.501755908131599426e-02,5.830528035646165286e-01
-5.279368600357560837e+00,4.511427506804466248e-02,5.925445539342650836e-01
-5.259336802930675958e+00,4.521324485540390015e-02,6.020702472330300425e-01
-5.239227325576115035e+00,4.531415551900863647e-02,6.116492604034792224e-01
-7.077849614770245879e+00,1.467565912753343582e-02,-2.628245997017994995e-01
-7.058843253198666901e+00,1.465188432484865189e-02,-2.537858467835915066e-01
-7.039897275870725224e+00,1.462874561548233032e-02,-2.447779569856963766e-01
-7.021014538992425003e+00,1.460613682866096497e-02,-2.357774639635915603e-01
-7.002184075445129885e+00,1.458425913006067276e-02,-2.268296373117780762e-01
-6.983408840926111694e+00,1.456300169229507446e-02,-2.179100597147237695e-01
-6.964691649209648006e+00,1.454227138310670853e-02,-2.089976790244487681e-01
-6.946026167093403814e+00,1.452216040343046188e-02,-2.001138888113407344e-01
-6.927410673840995514e+00,1.450266782194375992e-02,-1.912578980300159159e-01
-6.908843367221034981e+00,1.448378991335630417e-02,-1.824296276377135317e-01
-6.890327800476518050e+00,1.446543075144290924e-02,-1.736071885811065751e-01
-6.871851615272146496e+00,1.444778125733137131e-02,-1.648334229093713077e-01
-6.853425895232669873e+00,1.443061046302318573e-02,-1.560572695709918634e-01
-6.835042492728378605e+00,1.441403571516275406e-02,-1.473044000866210457e-01
-6.816706868609508696e+00,1.439793687313795090e-02,-1.385484218845456361e-01
-6.798409685913040512e+00,1.438244245946407318e-02,-1.298179427930352681e-01
-6.780148987562735208e+00,1.436755619943141937e-02,-1.211135826985239028e-01
-6.761923209841999238e+00,1.435327436774969101e-02,-1.124340941900117130e-01
-6.743736709046913802e+00,1.433950290083885193e-02,-1.037589422250950744e-01
-6.725587482470992917e+00,1.432625018060207367e-02,-9.509019161294052225e-02
-6.707465149408399441e+00,1.431364752352237701e-02,-8.645602197555457558e-02
-6.689365876690532176e+00,1.430172286927700043e-02,-7.786180451070801034e-02
-6.671293158369381970e+00,1.429039612412452698e-02,-6.929048313385832714e-02
-6.653258415011367610e+00,1.427948474884033203e-02,-6.070243911668238290e-02
-6.635240496195045523e+00,1.426926348358392715e-02,-5.215638412778567101e-02
-6.617251727120496696e+00,1.425953954458236694e-02,-4.361068109183041663e-02
-6.599290716315501015e+00,1.425031200051307678e-02,-3.506532417725582995e-02
-6.581355984288014049e+00,1.424158550798892975e-02,-2.652029186438564778e-02
-6.563431324266078448e+00,1.423354633152484894e-02,-1.801556069721810260e-02
-6.545536558228675972e+00,1.422592345625162125e-02,-9.492908761487894864e-03
-6.527655588063853820e+00,1.421890128403902054e-02,-9.913632643612224626e-04
-6.509794082219853451e+00,1.421239040791988373e-02,7.508650438800668070e-03
-6.491943270359917584e+00,1.420647837221622467e-02,1.598883709277720833e-02
-6.474116325856336118e+00,1.420099381357431412e-02,2.448608125718831907e-02
-6.456296898478118607e+00,1.419611182063817978e-02,3.296333806847107084e-02
-6.438483093624181031e+00,1.419183425605297089e-02,4.142118738465905281e-02
-6.420689492429337619e+00,1.418797951191663742e-02,4.989795808591446225e-02
-6.402898278220191308e+00,1.418473478406667709e-02,5.835517144687529800e-02
-6.385116200672892539e+00,1.418200694024562836e-02,6.681269375259835108e-02
-6.367341106031377151e+00,1.417980436235666275e-02,7.526897146793221083e-02
-6.349572473767265635e+00,1.417811959981918335e-02,8.372651912798279028e-02
-6.331806809741604702e+00,1.417697500437498093e-02,9.218135816399652960e-02
-6.314029571326917889e+00,1.417650654911994934e-02,1.006055663975451431e-01
-6.296258984291950078e+00,1.417650934308767319e-02,1.090426353338971310e-01
-6.278484501613227131e+00,1.417707931250333786e-02,1.174731333280101264e-01
-6.260698909547681268e+00,1.417827233672142029e-02,1.258864794926646269e-01
-6.242918214946774569e+00,1.417991518974304199e-02,1.343188111895627923e-01
-6.225123342760347178e+00,1.418218389153480530e-02,1.427347800898906005e-01
-6.207330811113878966e+00,1.418490335345268250e-02,1.511706746049308325e-01
-6.189547957591534200e+00,1.418799441307783127e-02,1.596428657715749377e-01
-6.171766412806754865e+00,1.419153064489364624e-02,1.681373460384565366e-01
-6.153974271953662090e+00,1.419561263173818588e-02,1.766341992355655588e-01
-6.136178721566841077e+00,1.420016307383775711e-02,1.851503076738090225e-01
-6.118359521143672985e+00,1.420535612851381302e-02,1.936512572752806527e-01
-6.100532553139919933e+00,1.421103533357381821e-02,2.021690905823789741e-01
-6.082684337092683080e+00,1.421731058508157730e-02,2.106832035568322326e-01
-6.064811554348048972e+00,1.422419771552085876e-02,2.191912815840273421e-01
-6.046922874727917119e+00,1.423161011189222336e-02,2.277113956584064791e-01
-6.029009341492319152e+00,1.423961389809846878e-02,2.362313381463991835e-01
-6.011080579631551402e+00,1.424811594188213348e-02,2.447704628546663042e-01
-5.993125638398916877e+00,1.425720099359750748e-02,2.533135270861548438e-01
-5.975141760394635071e+00,1.426687743514776230e-02,2.618593270714060228e-01
-5.957138637988641960e+00,1.427705772221088409e-02,2.704262359040210395e-01
-5.939113748500678192e+00,1.428775303065776825e-02,2.790130079795707374e-01
-5.921055830939734754e+00,1.429904624819755554e-02,2.876046980729805025e-01
-5.902971980579909683e+00,1.431086938828229904e-02,2.962152986496922047e-01
-5.884849511822755730e+00,1.432331558316946030e-02,3.048286653423541992e-01
-5.866699700840377396e+00,1.433628518134355545e-02,3.134645841888821227e-01
-5.848519983117545173e+00,1.434979122132062912e-02,3.221215748653236677e-01
-5.830296407643108303e+00,1.436393149197101593e-02,3.307825076640863449e-01
-5.812048771579913620e+00,1.437854580581188202e-02,3.394789695700685117e-01
-5.793753715137311744e+00,1.439380459487438202e-02,3.481797664034156359e-01
-5.775422430817464203e+00,1.440961472690105438e-02,3.569042147629988282e-01
-5.757051164217226180e+00,1.442599389702081680e-02,3.656495933476180404e-01
-5.738637593686044980e+00,1.444295514374971390e-02,3.744151050744024545e-01
-5.720180008807627559e+00,1.446049939841032028e-02,3.832020235012086884e-01
-5.701676607350585790e+00,1.447863504290580750e-02,3.920104276707977453e-01
-5.683123835941480628e+00,1.449737790971994400e-02,4.008380448035280263e-01
-5.664491864821711076e+00,1.451693661510944366e-02,4.096499903684083232e-01
-5.645819034377050016e+00,1.453702244907617569e-02,4.184990060888349461e-01
-5.627079369212284021e+00,1.455781515687704086e-02,4.273548483261647712e-01
-5.608293698292654561e+00,1.457915827631950378e-02,4.362467405797709752e-01
-5.589446988824493978e+00,1.460114959627389908e-02,4.451589568320118984e-01
-5.570552780505184209e+00,1.462368946522474289e-02,4.541103953320481112e-01
-5.551600338798825085e+00,1.464684493839740753e-02,4.630911027172260885e-01
-5.532591916867124482e+00,1.467059459537267685e-02,4.721062474442129231e-01
-5.513539144070675135e+00,1.469485182315111160e-02,4.811721621377309521e-01
-5.494428303008640491e+00,1.471970509737730026e-02,4.902750659159532676e-01
-5.475245131316347269e+00,1.474524568766355515e-02,4.994015172040026096e-01
-5.455999146987903892e+00,1.477140188217163086e-02,5.085648344806034116e-01
-5.436685664887228597e+00,1.479819696396589279e-02,5.177631888604914412e-01
-5.417304474730257446e+00,1.482562907040119171e-02,5.269987974067932290e-01
-5.397838188382950264e+00,1.485380250960588455e-02,5.362556273755261227e-01
-5.378299063839679484e+00,1.488263159990310669e-02,5.455501415235065599e-01
-5.358695705761132189e+00,1.491205580532550812e-02,5.548946102367612321e-01
-5.339000293576525280e+00,1.494224742054939270e-02,5.642620248606231570e-01
-5.319236146350752037e+00,1.497304998338222504e-02,5.736799541946873138e-01
-5.299384978906652499e+00,1.500457525253295898e-02,5.831327675543774847e-01
-5.279446899349624189e+00,1.503681670874357224e-02,5.926231096068931281e-01
-5.259414339638897928e+00,1.506981346756219864e-02,6.021472435389456646e-01
-5.239304016330552649e+00,1.510345656424760818e-02,6.117242279036381181e-01
-7.077908337765745905e+00,-1.467422861605882645e-02,-2.625064333903351921e-01
-7.058903530614244914e+00,-1.465046312659978867e-02,-2.534701371058304398e-01
-7.039959216707580403e+00,-1.462733093649148941e-02,-2.444639968415505127e-01
-7.021078033908166205e+00,-1.460473053157329559e-02,-2.354657182164053841e-01
-7.002249302782118434e+00,-1.458285562694072723e-02,-2.265191690444771089e-01
-6.983475680339481073e+00,-1.456160470843315125e-02,-2.176013318296382559e-01
-6.964760149869353434e+00,-1.454087905585765839e-02,-2.086904581093993460e-01
-6.946096447169374244e+00,-1.452076993882656097e-02,-1.998074694004183804e-01
-6.927482748003200186e+00,-1.450127921998500824e-02,-1.909522827379064314e-01
-6.908917107789621426e+00,-1.448240596801042557e-02,-1.821252780594035947e-01
-6.890403094441604814e+00,-1.446405146270990372e-02,-1.733045689262695532e-01
-6.871928617478586077e+00,-1.444640569388866425e-02,-1.645318342488115704e-01
-6.853502510647760282e+00,-1.442927401512861252e-02,-1.557648146564991620e-01
-6.835118432302595970e+00,-1.441274117678403854e-02,-1.470215117516393555e-01
-6.816783576481261875e+00,-1.439665723592042923e-02,-1.382695453011155706e-01
-6.798487388102094187e+00,-1.438117492944002151e-02,-1.295421495418107583e-01
-6.780228278458442226e+00,-1.436628960072994232e-02,-1.208385569605123777e-01
-6.762003947094537004e+00,-1.435201242566108704e-02,-1.121602949455147158e-01
-6.743818921996221682e+00,-1.433824375271797180e-02,-1.034863747034839854e-01
-6.725671384641805695e+00,-1.432499103248119354e-02,-9.481816734376291578e-02
-6.707549158107758203e+00,-1.431241165846586227e-02,-8.618934456386151410e-02
-6.689451302406780542e+00,-1.430048886686563492e-02,-7.759634836315831841e-02
-6.671380001102519941e+00,-1.428916584700345993e-02,-6.902624825045178270e-02
-6.653346959461041266e+00,-1.427825260907411575e-02,-6.043850753681589971e-02
-6.635331127575750720e+00,-1.426802575588226318e-02,-5.189161363007710470e-02
-6.617344859986672212e+00,-1.425828970968723297e-02,-4.334393468426900320e-02
-6.599386622871760366e+00,-1.424904819577932358e-02,-3.479592384813190442e-02
-6.581454136970036117e+00,-1.424031239002943039e-02,-2.624983881538334174e-02
-6.563531053159722184e+00,-1.423227600753307343e-02,-1.774611511032220257e-02
-6.545637704139210200e+00,-1.422465499490499496e-02,-9.224684438735142322e-03
-6.527758335176073068e+00,-1.421763375401496887e-02,-7.236665059280333878e-04
-6.509898346863813856e+00,-1.421112380921840668e-02,7.775350193870433912e-03
-6.492048952020767594e+00,-1.420521549880504608e-02,1.625431558370404872e-02
-6.474223868428452988e+00,-1.419972721487283707e-02,2.475147024661095152e-02
-6.456405799387246347e+00,-1.419484801590442657e-02,3.322751625249353857e-02
-6.438593612579900594e+00,-1.419057138264179230e-02,4.168459282609737748e-02
-6.420801327887096122e+00,-1.418672036379575729e-02,5.015991800243035925e-02
-6.403011572529810458e+00,-1.418347656726837158e-02,5.861614481877008842e-02
-6.385230853319521671e+00,-1.418075058609247208e-02,6.707245631909275474e-02
-6.367457820618976250e+00,-1.417854335159063339e-02,7.552909305448207711e-02
-6.349690387497142652e+00,-1.417686324566602707e-02,8.398521610709552832e-02
-6.331926860937242552e+00,-1.417571306228637695e-02,9.244015852615672379e-02
-6.314157749044439605e+00,-1.417517755180597305e-02,1.008776910699913376e-01
-6.296395079356501334e+00,-1.417511608451604843e-02,1.093269107190184553e-01
-6.278624258711222872e+00,-1.417566556483507156e-02,1.177606308296041959e-01
-6.260841063821019681e+00,-1.417685206979513168e-02,1.261745184401221742e-01
-6.243062280666109132e+00,-1.417849399149417877e-02,1.346060251007219488e-01
-6.225269504110472418e+00,-1.418075896799564362e-02,1.430218626645751723e-01
-6.207478565520535341e+00,-1.418348029255867004e-02,1.514565045392439746e-01
-6.189697506084424816e+00,-1.418657135218381882e-02,1.599278915870754325e-01
-6.171917353326474398e+00,-1.419011037796735764e-02,1.684206706920270413e-01
-6.154127349939141567e+00,-1.419418863952159882e-02,1.769176272721835197e-01
-6.136333191579148583e+00,-1.419874187558889389e-02,1.854320345484967714e-01
-6.118514662733939069e+00,-1.420394517481327057e-02,1.939299583408478078e-01
-6.100686732525850253e+00,-1.420964766293764114e-02,2.024423930989380782e-01
-6.082833273416028419e+00,-1.421598438173532486e-02,2.109433943607617046e-01
-6.064956210922352042e+00,-1.422292366623878479e-02,2.194403685635988310e-01
-6.047067649771190823e+00,-1.423034910112619400e-02,2.279570710597551564e-01
-6.029155876932009939e+00,-1.423835102468729019e-02,2.364766997854650388e-01
-6.011228875467656607e+00,-1.424685027450323105e-02,2.450155107314491154e-01
-5.993275451766764128e+00,-1.425593439489603043e-02,2.535575779595740098e-01
-5.975293451518660426e+00,-1.426560804247856140e-02,2.621030432650566233e-01
-5.957291729284646564e+00,-1.427578926086425781e-02,2.706689760117935162e-01
-5.939269035942323249e+00,-1.428647805005311966e-02,2.792558410116479095e-01
-5.921212635913121858e+00,-1.429777126759290695e-02,2.878465341016938073e-01
-5.903130026530545749e+00,-1.430959720164537430e-02,2.964559447904908662e-01
-5.885009871278794158e+00,-1.432203687727451324e-02,3.050693834899720347e-01
-5.866861577828156982e+00,-1.433500647544860840e-02,3.137043053331358688e-01
-5.848683101082572833e+00,-1.434851344674825668e-02,3.223601061216629926e-01
-5.830461562559045241e+00,-1.436264999210834503e-02,3.310209180426938458e-01
-5.812215125638127589e+00,-1.437726430594921112e-02,3.397159553412391064e-01
-5.793922583730632070e+00,-1.439251657575368881e-02,3.484172727029638539e-01
-5.775592180163596545e+00,-1.440833043307065964e-02,3.571398688510369901e-01
-5.757222230065397461e+00,-1.442471146583557129e-02,3.658838019107338857e-01
-5.738809942346435378e+00,-1.444167271256446838e-02,3.746483584691255864e-01
-5.720353833164788071e+00,-1.445921789854764938e-02,3.834340451730461341e-01
-5.701852586018416602e+00,-1.447734795510768890e-02,3.922423075474177345e-01
-5.683303443507542241e+00,-1.449607405811548233e-02,4.010719418227819411e-01
-5.664677045312607184e+00,-1.451560296118259430e-02,4.098879797982051265e-01
-5.646006050789150521e+00,-1.453568693250417709e-02,4.187364261193412540e-01
-5.627268498100084670e+00,-1.455647405236959457e-02,4.275918918419316928e-01
-5.608483908962971221e+00,-1.457781903445720673e-02,4.364823804055865120e-01
-5.589640778412917399e+00,-1.459979731589555740e-02,4.453956540048873425e-01
-5.570752897157131400e+00,-1.462230272591114044e-02,4.543520192061274443e-01
-5.551817147571399325e+00,-1.464535389095544815e-02,4.633496099162531801e-01
-5.532823507423537457e+00,-1.466901227831840515e-02,4.723790723437490957e-01
-5.513774984013942948e+00,-1.469325181096792221e-02,4.814464092359435066e-01
-5.494666766701622684e+00,-1.471809949725866318e-02,4.905490875490062797e-01
-5.475485062560948357e+00,-1.474364101886749268e-02,4.996735820381178472e-01
-5.456242615315638922e+00,-1.476978417485952377e-02,5.088377219422562936e-01
-5.436930642601554453e+00,-1.479658111929893494e-02,5.180343542427289227e-01
-5.417552193554058704e+00,-1.482400484383106232e-02,5.272697164063856468e-01
-5.398088606481255880e+00,-1.485217269510030746e-02,5.365260652729515467e-01
-5.378550555575349001e+00,-1.488100644201040268e-02,5.458184506549285109e-01
-5.358949737576572225e+00,-1.491042412817478180e-02,5.551622244639796699e-01
-5.339255122474838799e+00,-1.494062040001153946e-02,5.645273174372871239e-01
-5.319492803025117844e+00,-1.497142296284437180e-02,5.739439522960090301e-01
-5.299642826578143229e+00,-1.500295102596282959e-02,5.833946159722104285e-01
-5.279704077661579120e+00,-1.503520552068948746e-02,5.928812025123726404e-01
-5.259672591588216761e+00,-1.506820600479841232e-02,6.024032076784217038e-01
-5.239562034669559942e+00,-1.510186027735471725e-02,6.119768432173480210e-01
-7.077951916074898264e+00,-4.402179643511772156e-02,-2.622703293586229334e-01
-7.058948111727044505e+00,-4.395052790641784668e-02,-2.532366335670154234e-01
-7.040004723947874687e+00,-4.388116300106048584e-02,-2.442333223052763902e-01
-7.021124483438478947e+00,-4.381338506937026978e-02,-2.352376333874502956e-01
-7.002296956614754819e+00,-4.374777525663375854e-02,-2.262922675667226047e-01
-6.983524236119718509e+00,-4.368405044078826904e-02,-2.173770128688168324e-01
-6.964809993621856599e+00,-4.362187162041664124e-02,-2.084668530607343140e-01
-6.946147529724186143e+00,-4.356155171990394592e-02,-1.995848116760889912e-01
-6.927535054690351579e+00,-4.350308328866958618e-02,-1.907305697232268837e-01
-6.908970665774112341e+00,-4.344646632671356201e-02,-1.819042724201662686e-01
-6.890458031403288608e+00,-4.339139908552169800e-02,-1.730838090674868823e-01
-6.871984692727727051e+00,-4.333847016096115112e-02,-1.643122459751442666e-01
-6.853559879029212709e+00,-4.328707605600357056e-02,-1.555456990387515948e-01
-6.835176769456681178e+00,-4.323749616742134094e-02,-1.468042640335163185e-01
-6.816841362744781918e+00,-4.318933561444282532e-02,-1.380594646735684439e-01
-6.798545402049195552e+00,-4.314293339848518372e-02,-1.293362264860240529e-01
-6.780287441013090444e+00,-4.309828579425811768e-02,-1.206333229773679516e-01
-6.762064287596674994e+00,-4.305545240640640259e-02,-1.119557552643837273e-01
-6.743880440445849445e+00,-4.301414638757705688e-02,-1.032825293243666565e-01
-6.725734093533953128e+00,-4.297439008951187134e-02,-9.461477631776582520e-02
-6.707612375033252583e+00,-4.293668270111083984e-02,-8.598870802186309170e-02
-6.689515739114734849e+00,-4.290091618895530701e-02,-7.739617140365129266e-02
-6.671445770602817404e+00,-4.286693781614303589e-02,-6.882606666376345217e-02
-6.653414162268532550e+00,-4.283418878912925720e-02,-6.023809706216720627e-02
-6.635400178244873715e+00,-4.280348122119903564e-02,-5.168983727545684026e-02
-6.617415473817780835e+00,-4.277425631880760193e-02,-4.314171041028003195e-02
-6.599458184280715400e+00,-4.274654388427734375e-02,-3.459483716834399480e-02
-6.581526947501392222e+00,-4.272033646702766418e-02,-2.604921694745820915e-02
-6.563604869948805209e+00,-4.269623011350631714e-02,-1.754664129534089234e-02
-6.545712753205783940e+00,-4.267336800694465637e-02,-9.025430257351807484e-03
-6.527834390500371953e+00,-4.265230894088745117e-02,-5.255603774885209134e-04
-6.509975492115780860e+00,-4.263278469443321228e-02,7.972777708410427877e-03
-6.492127505589867731e+00,-4.261505231261253357e-02,1.645149208841756305e-02
-6.474303712954925238e+00,-4.259858280420303345e-02,2.494841665898372973e-02
-6.456486834356238269e+00,-4.258394241333007812e-02,3.342400831174630049e-02
-6.438675695641589591e+00,-4.257111996412277222e-02,4.188017155192835794e-02
-6.420884743741127387e+00,-4.255956038832664490e-02,5.035550135544264450e-02
-6.403096136991392129e+00,-4.254982993006706238e-02,5.881103909914031647e-02
-6.385316566388651083e+00,-4.254165664315223694e-02,6.726666152682070354e-02
-6.367544824645477775e+00,-4.253502935171127319e-02,7.572306816986906775e-02
-6.349778699325924869e+00,-4.252998158335685730e-02,8.417871595187653710e-02
-6.332016262693692887e+00,-4.252653568983078003e-02,9.263297975703843612e-02
-6.314248198893587904e+00,-4.252493381500244141e-02,1.010695989674514905e-01
-6.296488244215852959e+00,-4.252470284700393677e-02,1.095214829967836589e-01
-6.278722986686440244e+00,-4.252621904015541077e-02,1.179636564329662463e-01
-6.260943084905489009e+00,-4.252971708774566650e-02,1.263810740906783359e-01
-6.243165249328423982e+00,-4.253464937210083008e-02,1.348114431570772709e-01
-6.225374199479383641e+00,-4.254143312573432922e-02,1.432274573151772756e-01
-6.207584468176875703e+00,-4.254959896206855774e-02,1.516613996584610380e-01
-6.189804314483640546e+00,-4.255888238549232483e-02,1.601314143925693934e-01
-6.172025570042822373e+00,-4.256949573755264282e-02,1.686239424876945225e-01
-6.154237352041967313e+00,-4.258171841502189636e-02,1.771210652033550215e-01
-6.136444241774672292e+00,-4.259538277983665466e-02,1.856345591462469358e-01
-6.118624758870280012e+00,-4.261105507612228394e-02,1.941278094656415654e-01
-6.100793076477469157e+00,-4.262829571962356567e-02,2.026307416010570961e-01
-6.082938906173139593e+00,-4.264735803008079529e-02,2.111277526310049169e-01
-6.065062732577427340e+00,-4.266818612813949585e-02,2.196235996983839645e-01
-6.047175345023878101e+00,-4.269045591354370117e-02,2.281400930196850751e-01
-6.029265298891292701e+00,-4.271444678306579590e-02,2.366598983396415168e-01
-6.011339345519638222e+00,-4.273995012044906616e-02,2.451977959522042561e-01
-5.993386735191920778e+00,-4.276721179485321045e-02,2.537389916818786340e-01
-5.975406419815441517e+00,-4.279622063040733337e-02,2.622843988620855438e-01
-5.957405787509096662e+00,-4.282676801085472107e-02,2.708496529949231402e-01
-5.939384460648935438e+00,-4.285883158445358276e-02,2.794360322654292350e-01
-5.921329033187641144e+00,-4.289271309971809387e-02,2.880260676590611357e-01
-5.903247672927464329e+00,-4.292818531394004822e-02,2.966350135359951956e-01
-5.885128925992846760e+00,-4.296550154685974121e-02,3.052482012256498844e-01
-5.866981722469877703e+00,-4.300440847873687744e-02,3.138824444549144221e-01
-5.848804453011723581e+00,-4.304492846131324768e-02,3.225375457120562839e-01
-5.830584322805327346e+00,-4.308733344078063965e-02,3.311981066232607684e-01
-5.812339252366571785e+00,-4.313118010759353638e-02,3.398926581924577306e-01
-5.794047683026983364e+00,-4.317693784832954407e-02,3.485933178577685920e-01
-5.775718486747377867e+00,-4.322437569499015808e-02,3.573152144744566883e-01
-5.757349944966311028e+00,-4.327351599931716919e-02,3.660588965243271042e-01
-5.738938386950582782e+00,-4.332441091537475586e-02,3.748221121452242066e-01
-5.720483208501871530e+00,-4.337704926729202271e-02,3.836069064332086054e-01
-5.701983487032394216e+00,-4.343143105506896973e-02,3.924148968802683157e-01
-5.683435870198412232e+00,-4.348760843276977539e-02,4.012442592283205212e-01
-5.664813268241591260e+00,-4.354613646864891052e-02,4.100632532244660178e-01
-5.646143120781130342e+00,-4.360639303922653198e-02,4.189103376906220255e-01
-5.627407412158421884e+00,-4.366874694824218750e-02,4.277659590899736131e-01
-5.608624306863230657e+00,-4.373277723789215088e-02,4.366559410067945013e-01
-5.589785089911052829e+00,-4.379865154623985291e-02,4.455721497093320105e-01
-5.570908546280275431e+00,-4.386596009135246277e-02,4.545398138379022068e-01
-5.551978411454348894e+00,-4.393502324819564819e-02,4.635417316780929831e-01
-5.532986255148409249e+00,-4.400599747896194458e-02,4.725706874587549677e-01
-5.513940128914159189e+00,-4.407869651913642883e-02,4.816385657968128564e-01
-5.494833789358016141e+00,-4.415322840213775635e-02,4.907409094301070640e-01
-5.475653728253995212e+00,-4.422984644770622253e-02,4.998651110744213311e-01
-5.456412086236710479e+00,-4.430828616023063660e-02,5.090276544040573947e-01
-5.437101832084070274e+00,-4.438867047429084778e-02,5.182237382227247169e-01
-5.417725537347244824e+00,-4.447092860937118530e-02,5.274589585911642065e-01
-5.398263593311096287e+00,-4.455542564392089844e-02,5.367150146129324728e-01
-5.378725358775001020e+00,-4.464195668697357178e-02,5.460050109647176519e-01
-5.359124315311065700e+00,-4.473024234175682068e-02,5.553461610240545410e-01
-5.339429474744171067e+00,-4.482086002826690674e-02,5.647086302476478359e-01
-5.319667884997683949e+00,-4.491327702999114990e-02,5.741239241688748107e-01
-5.299818914808435366e+00,-4.500786960124969482e-02,5.835734397921326089e-01
-5.279881172149597290e+00,-4.510464146733283997e-02,5.930588782793508873e-01
-5.259851245442948020e+00,-4.520363733172416687e-02,6.025801211615585684e-01
-5.239742725475200480e+00,-4.530458897352218628e-02,6.121536358227530616e-01
-7.077971649302864598e+00,-7.337490469217300415e-02,-2.621634142637274678e-01
-7.058967829901696689e+00,-7.325619459152221680e-02,-2.531333484280792190e-01
-7.040024477731724240e+00,-7.314064353704452515e-02,-2.441331918002125345e-01
-7.021144194321629506e+00,-7.302774488925933838e-02,-2.351408856990662155e-01
-7.002316376572484735e+00,-7.291847467422485352e-02,-2.261998271923356674e-01
-6.983543566991897933e+00,-7.281232625246047974e-02,-2.172877049034740438e-01
-6.964829606763180969e+00,-7.270871102809906006e-02,-2.083788062849725176e-01
-6.946167417799670396e+00,-7.260818779468536377e-02,-1.994980247825655084e-01
-6.927554991680228369e+00,-7.251077890396118164e-02,-1.906459711312873395e-01
-6.908990863028178886e+00,-7.241643220186233521e-02,-1.818209310957796809e-01
-6.890478516086544047e+00,-7.232466340065002441e-02,-1.730014876764449649e-01
-6.872005690859937843e+00,-7.223644107580184937e-02,-1.642300160981013946e-01
-6.853581022240790688e+00,-7.215080410242080688e-02,-1.554649480753551583e-01
-6.835198043077656216e+00,-7.206819206476211548e-02,-1.467249893690802942e-01
-6.816860539712719991e+00,-7.198812812566757202e-02,-1.379897455277108165e-01
-6.798562875723746401e+00,-7.191096991300582886e-02,-1.292741955613105898e-01
-6.780304643037632140e+00,-7.183659821748733521e-02,-1.205736653947326875e-01
-6.762081473330911585e+00,-7.176522910594940186e-02,-1.118975478338521956e-01
-6.743897907084458687e+00,-7.169638574123382568e-02,-1.032246141364423497e-01
-6.725751301017584005e+00,-7.163016498088836670e-02,-9.455899452302607422e-02
-6.707628795797585752e+00,-7.156739383935928345e-02,-8.593666082199158396e-02
-6.689532624968233421e+00,-7.150776684284210205e-02,-7.734372274656342583e-02
-6.671463192720392676e+00,-7.145111262798309326e-02,-6.877298705930878775e-02
-6.653432736234325517e+00,-7.139647006988525391e-02,-6.018280099677597583e-02
-6.635420502798113240e+00,-7.134518772363662720e-02,-5.163049405729469576e-02
-6.617436535664801056e+00,-7.129645347595214844e-02,-4.308128772319208544e-02
-6.599479414022225043e+00,-7.125026732683181763e-02,-3.453517093353619671e-02
-6.581548386972362330e+00,-7.120659202337265015e-02,-2.599007244540851858e-02
-6.563626619664086448e+00,-7.116641849279403687e-02,-1.748779426527002911e-02
-6.545734771330406154e+00,-7.112831622362136841e-02,-8.967115418781368419e-03
-6.527856961733982111e+00,-7.109320163726806641e-02,-4.668597698160859011e-04
-6.509998474108553701e+00,-7.106065750122070312e-02,8.031405104883315715e-03
-6.492150881496895565e+00,-7.103110104799270630e-02,1.651029145195592740e-02
-6.474327156241590941e+00,-7.100366055965423584e-02,2.500623530946310957e-02
-6.456510428692483039e+00,-7.097927480936050415e-02,3.348131568821011150e-02
-6.438699843086822305e+00,-7.095788419246673584e-02,4.193786469749416490e-02
-6.420909117760729146e+00,-7.093862444162368774e-02,5.041242758998554230e-02
-6.403121064119979167e+00,-7.092239707708358765e-02,5.886835110278521022e-02
-6.385341904276403469e+00,-7.090876996517181396e-02,6.732390031926627216e-02
-6.367570313582808339e+00,-7.089773565530776978e-02,7.577979568829928958e-02
-6.349804439827687830e+00,-7.088933140039443970e-02,8.423515645707135846e-02
-6.332042715499174079e+00,-7.088356465101242065e-02,9.269001983337155082e-02
-6.314275104293203711e+00,-7.088088244199752808e-02,1.011268005521073210e-01
-6.296517587516573755e+00,-7.088039070367813110e-02,1.095828514075620763e-01
-6.278758679822325384e+00,-7.088261842727661133e-02,1.180372127642099755e-01
-6.260984039058081763e+00,-7.088821381330490112e-02,1.264641062955491613e-01
-6.243208633236968730e+00,-7.089633494615554810e-02,1.348979171120190390e-01
-6.225418672760992145e+00,-7.090761512517929077e-02,1.433149479865880593e-01
-6.207629947161604989e+00,-7.092120498418807983e-02,1.517494376072967555e-01
-6.189850237917352338e+00,-7.093668729066848755e-02,1.602188887736759604e-01
-6.172072180790191709e+00,-7.095436751842498779e-02,1.687115365421527624e-01
-6.154284147528734650e+00,-7.097475975751876831e-02,1.772076576272683113e-01
-6.136487979980921104e+00,-7.099770009517669678e-02,1.857141890272577811e-01
-6.118663764178746689e+00,-7.102405279874801636e-02,1.941978693443400239e-01
-6.100825832465623932e+00,-7.105309516191482544e-02,2.026888378200699670e-01
-6.082969375309768445e+00,-7.108498364686965942e-02,2.111811707498800761e-01
-6.065094190572268396e+00,-7.111967355012893677e-02,2.196778102729486370e-01
-6.047207272457763239e+00,-7.115679234266281128e-02,2.281942199243076619e-01
-6.029297419209728837e+00,-7.119678705930709839e-02,2.367137486897712417e-01
-6.011371776082386376e+00,-7.123930007219314575e-02,2.452513488303549316e-01
-5.993419635193713013e+00,-7.128472626209259033e-02,2.537924608900872236e-01
-5.975439395342023730e+00,-7.133309543132781982e-02,2.623376124332867931e-01
-5.957439391669455020e+00,-7.138399779796600342e-02,2.709029966982186011e-01
-5.939418375053605814e+00,-7.143744081258773804e-02,2.794890784967460906e-01
-5.921363098641892364e+00,-7.149392366409301758e-02,2.880786026163626445e-01
-5.903282408850463625e+00,-7.155304402112960815e-02,2.966879133449134009e-01
-5.885164290549620425e+00,-7.161522656679153442e-02,3.053012311666625234e-01
-5.867017556465696337e+00,-7.168007642030715942e-02,3.139353907259847531e-01
-5.848840840116528383e+00,-7.174760848283767700e-02,3.225908777522288329e-01
-5.830620701764980929e+00,-7.181829959154129028e-02,3.312507135873815622e-01
-5.812376419154732687e+00,-7.189136743545532227e-02,3.399456090907093664e-01
-5.794085277419217306e+00,-7.196763157844543457e-02,3.486459503665561011e-01
-5.775756751608359885e+00,-7.204669713973999023e-02,3.573682118348607828e-01
-5.757388042487409763e+00,-7.212862372398376465e-02,3.661109550066429241e-01
-5.738976518161498674e+00,-7.221346348524093628e-02,3.748736802710100902e-01
-5.720521809151832393e+00,-7.230120152235031128e-02,3.836583908890524031e-01
-5.702022079537202970e+00,-7.239186018705368042e-02,3.924656562600602472e-01
-5.683474973977236111e+00,-7.248548418283462524e-02,4.012951696576925187e-01
-5.664858170410409954e+00,-7.258284091949462891e-02,4.101208798140953959e-01
-5.646188852613427400e+00,-7.268326729536056519e-02,4.189685429339041756e-01
-5.627453613429763024e+00,-7.278719544410705566e-02,4.278240806633137883e-01
-5.608676222854623639e+00,-7.289373129606246948e-02,4.367203093013477533e-01
-5.589848560847461734e+00,-7.300315052270889282e-02,4.456497156048775388e-01
-5.570985717218009725e+00,-7.311487942934036255e-02,4.546331011239080899e-01
-5.552061489996685140e+00,-7.322981953620910645e-02,4.636409891308188591e-01
-5.533070984872552778e+00,-7.334808260202407837e-02,4.726703771427352985e-01
-5.514025520961898685e+00,-7.346925884485244751e-02,4.817378952563577954e-01
-5.494919047755689512e+00,-7.359351217746734619e-02,4.908388096550337920e-01
-5.475739925529758523e+00,-7.372121512889862061e-02,4.999628439594637763e-01
-5.456497437558688546e+00,-7.385201007127761841e-02,5.091233584833431136e-01
-5.437187250785687098e+00,-7.398601621389389038e-02,5.183184615889511182e-01
-5.417809950900345228e+00,-7.412318140268325806e-02,5.275514393495971399e-01
-5.398347278270174243e+00,-7.426406443119049072e-02,5.368054456481229364e-01
-5.378809345833238886e+00,-7.440830767154693604e-02,5.460944194518776440e-01
-5.359207380890729233e+00,-7.455550879240036011e-02,5.554337963424651470e-01
-5.339512884257966441e+00,-7.470656186342239380e-02,5.647954777375502333e-01
-5.319750331197933946e+00,-7.486065477132797241e-02,5.742087637705058922e-01
-5.299901109998859106e+00,-7.501834630966186523e-02,5.836568710766308898e-01
-5.279965060356799356e+00,-7.517961412668228149e-02,5.931429765146258859e-01
-5.259935795973744277e+00,-7.534462213516235352e-02,6.026638591723980642e-01
-5.239828374078817852e+00,-7.551287114620208740e-02,6.122374202957449052e-01
-7.078041756314975785e+00,-1.027289852499961853e-01,-2.617835846997775828e-01
-7.059040092930444210e+00,-1.025627925992012024e-01,-2.527548718430639996e-01
-7.040099020448273848e+00,-1.024010032415390015e-01,-2.437553637087300773e-01
-7.021221009390996137e+00,-1.022429242730140686e-01,-2.347637047937736199e-01
-7.002395334822262285e+00,-1.020899415016174316e-01,-2.258239969781278278e-01
-6.983624695587088205e+00,-1.019413322210311890e-01,-2.169129880461431181e-01
-6.964912441169223811e+00,-1.017963364720344543e-01,-2.080072995721033990e-01
