-1.46891188621521,0.033257756382226944,-1.561926007270813
-1.454910159111023,0.033048707991838455,-1.5565792322158813
-1.4410862922668457,0.03284265100955963,-1.551302433013916
-1.4274367094039917,0.0326395258307457,-1.5460944175720215
-1.4138720035552979,0.03243729844689369,-1.5408601760864258
-1.3991408348083496,0.03220716863870621,-1.5342282056808472
-1.384041666984558,0.03196728974580765,-1.5270546674728394
-1.3677939176559448,0.031699467450380325,-1.51846444606781
-1.3516249656677246,0.03143194690346718,-1.5098034143447876
-1.3356702327728271,0.031167875975370407,-1.5012239217758179
-1.3183910846710205,0.030871262773871422,-1.490989089012146
-1.3006521463394165,0.03056207485496998,-1.4800535440444946
-1.2831355333328247,0.030256247147917747,-1.469186544418335
-1.263982892036438,0.029909836128354073,-1.4562501907348633
-1.2415690422058105,0.02948380634188652,-1.4393235445022583
-1.2166951894760132,0.028996389359235764,-1.4192684888839722
-1.192704439163208,0.02852686308324337,-1.3999526500701904
-1.1694179773330688,0.028071120381355286,-1.381181240081787
-1.1468745470046997,0.02763022854924202,-1.3630131483078003
-1.1250371932983398,0.027203446254134178,-1.3454176187515259
-1.103851318359375,0.026789585128426552,-1.3283418416976929
-1.0832785367965698,0.02638784609735012,-1.3117516040802002
-1.0633444786071777,0.025998974218964577,-1.2956889867782593
-1.0439574718475342,0.02562085911631584,-1.280053973197937
-1.0251370668411255,0.025254085659980774,-1.2648805379867554
-1.0068528652191162,0.024898024275898933,-1.2501416206359863
-0.9849710464477539,0.02445017173886299,-1.230682373046875
-12.475312232971191,0.38429051637649536,-21.405183792114258
-12.433825492858887,0.385041207075119,-21.485244750976562
-12.39218521118164,0.38579878211021423,-21.565637588500977
-12.350279808044434,0.3865598738193512,-21.64617156982422
-12.308243751525879,0.38732871413230896,-21.727088928222656
12.646087646484375,0.15476079285144806,-5.933746337890625
12.719704627990723,0.15543867647647858,-5.920741558074951
12.790302276611328,0.1560792475938797,-5.905928611755371
12.858619689941406,0.15669168531894684,-5.889680862426758
12.925171852111816,0.15728239715099335,-5.872258186340332
12.989558219909668,0.1578466147184372,-5.853499889373779
13.052180290222168,0.1583893597126007,-5.833611011505127
13.112957000732422,0.15890973806381226,-5.81257438659668
13.172287940979004,0.1594126969575882,-5.790586471557617
13.230183601379395,0.15989845991134644,-5.767669200897217
13.28564453125,0.16035504639148712,-5.743405818939209
13.339460372924805,0.16079208254814148,-5.718161106109619
12.777383804321289,0.15381532907485962,-5.430875301361084
12.302196502685547,0.14790281653404236,-5.184399604797363
12.410840034484863,0.14901700615882874,-5.185403823852539
12.491427421569824,0.1497933268547058,-5.174118995666504
12.565465927124023,0.1504906415939331,-5.159678936004639
12.631123542785645,0.15108735859394073,-5.141410827636719
12.694427490234375,0.1516558974981308,-5.121835708618164
12.753292083740234,0.15217149257659912,-5.1001458168029785
12.810742378234863,0.15267038345336914,-5.077588081359863
12.86601734161377,0.15314361453056335,-5.053878307342529
12.918678283691406,0.15358607470989227,-5.02886962890625
12.971436500549316,0.15403006970882416,-5.003635406494141
13.023029327392578,0.15446063876152039,-4.977691650390625
13.072892189025879,0.1548711657524109,-4.9508376121521
13.122577667236328,0.15528009831905365,-4.923673629760742
13.172627449035645,0.15569384396076202,-4.896402835845947
12.436304092407227,0.14682413637638092,-4.579327583312988
12.394244194030762,0.14616313576698303,-4.520707607269287
12.377923011779785,0.1458081752061844,-4.471775531768799
12.366791725158691,0.14551645517349243,-4.424908638000488
12.366434097290039,0.14535337686538696,-4.382030487060547
12.371233940124512,0.14525257050991058,-4.341057300567627
12.382594108581543,0.1452302783727646,-4.302422523498535
12.404044151306152,0.145327627658844,-4.267271518707275
12.428104400634766,0.1454566866159439,-4.232952117919922
12.459526062011719,0.14567291736602783,-4.201038837432861
12.498321533203125,0.14597618579864502,-4.171460151672363
12.54039478302002,0.1463184505701065,-4.142786979675293
12.592123031616211,0.14677393436431885,-4.11707067489624
12.658123970031738,0.14739607274532318,-4.095706939697266
12.76084041595459,0.1484454870223999,-4.085736274719238
13.70841121673584,0.15931273996829987,-4.342804431915283
13.973734855651855,0.16223928332328796,-4.379730701446533
13.945792198181152,0.16176007688045502,-4.324029922485352
13.915010452270508,0.16125041246414185,-4.267735004425049
13.884500503540039,0.16074635088443756,-4.211817264556885
13.633790016174316,0.15769775211811066,-4.09013032913208
13.174092292785645,0.15224117040634155,-3.9082064628601074
13.793839454650879,0.15925884246826172,-4.046058177947998
13.764047622680664,0.15877275168895721,-3.991499900817871
13.734259605407715,0.15828904509544373,-3.9372220039367676
13.704837799072266,0.15781189501285553,-3.883326530456543
13.675573348999023,0.15733888745307922,-3.8297486305236816
13.646404266357422,0.15686924755573273,-3.7764687538146973
13.617444038391113,0.1564042866230011,-3.7235147953033447
13.588603019714355,0.15594294667243958,-3.6708598136901855
13.560001373291016,0.1554865837097168,-3.618532657623291
13.531549453735352,0.155034139752388,-3.5665059089660645
13.50329875946045,0.15458618104457855,-3.5147898197174072
13.475165367126465,0.15414175391197205,-3.463359832763672
13.447164535522461,0.15370097756385803,-3.412217140197754
13.419397354125977,0.15326499938964844,-3.3613839149475098
13.391709327697754,0.1528320461511612,-3.310818910598755
21.14655303955078,0.2344665229320526,0.8438460826873779
21.000680923461914,0.23287872970104218,0.9025650024414062
20.96782112121582,0.23254609107971191,0.9656087756156921
20.935195922851562,0.2322181761264801,1.0284802913665771
20.902570724487305,0.23189233243465424,1.0911704301834106
20.870014190673828,0.2315693199634552,1.1536842584609985
20.83756446838379,0.2312495857477188,1.216025710105896
20.805240631103516,0.2309332937002182,1.2781981229782104
20.77301788330078,0.23062019050121307,1.3402020931243896
20.742067337036133,0.23032324016094208,1.4021189212799072
20.76042366027832,0.23057597875595093,1.4673564434051514
20.794754028320312,0.23100844025611877,1.533913254737854
20.829063415527344,0.23144304752349854,1.6007091999053955
20.863611221313477,0.231882706284523,1.6677664518356323
20.89808464050293,0.23232391476631165,1.7350623607635498
20.932811737060547,0.23277035355567932,1.8026258945465088
20.967939376831055,0.23322369158267975,1.8704742193222046
21.003009796142578,0.23367881774902344,1.9385697841644287
21.038127899169922,0.23413695394992828,2.0069239139556885
21.073238372802734,0.23459745943546295,2.075532913208008
21.077001571655273,0.23471136391162872,2.14121413230896
20.814884185791016,0.23186582326889038,2.179124116897583
20.55935287475586,0.2290940135717392,2.2161598205566406
20.333881378173828,0.22665759921073914,2.2549848556518555
20.268314361572266,0.2260047048330307,2.310682535171509
20.237470626831055,0.22574079036712646,2.3700830936431885
20.206613540649414,0.2254786640405655,2.429335594177246
20.17585563659668,0.22521957755088806,2.4884543418884277
20.145206451416016,0.22496362030506134,2.547443151473999
20.11465072631836,0.2247106283903122,2.6063013076782227
20.08406639099121,0.22445924580097198,2.665015459060669
20.053558349609375,0.22421063482761383,2.723599910736084
20.023151397705078,0.22396504878997803,2.782059669494629
19.992835998535156,0.22372236847877502,2.84039568901062
20.48363494873047,0.22931548953056335,2.9742634296417236
21.542631149291992,0.24127964675426483,3.195547580718994
21.577756881713867,0.2417842298746109,3.2684452533721924
21.613178253173828,0.24229486286640167,3.341671943664551
21.64872932434082,0.2428097277879715,3.4152064323425293
21.68442726135254,0.2433290183544159,3.489053726196289
21.72003746032715,0.24385015666484833,3.5631790161132812
21.755807876586914,0.24437588453292847,3.6376242637634277
21.792034149169922,0.24490958452224731,3.7124431133270264
21.82831382751465,0.24544675648212433,3.787571907043457
4.500167369842529,0.17350701987743378,15.000582695007324
4.440890789031982,0.17299148440361023,14.969706535339355
4.381987571716309,0.17248152196407318,14.939091682434082
4.323445796966553,0.17197680473327637,14.908710479736328
4.265229225158691,0.17147599160671234,14.878450393676758
4.207335472106934,0.1709790825843811,14.848313331604004
4.149789810180664,0.17048725485801697,14.818402290344238
4.092560291290283,0.16999925673007965,14.788612365722656
4.035672187805176,0.16951628029346466,14.759048461914062
3.9790921211242676,0.16903705894947052,14.72960090637207
3.922846555709839,0.16856279969215393,14.700380325317383
3.8669042587280273,0.16809231042861938,14.671279907226562
3.8112871646881104,0.16762661933898926,14.642396926879883
3.7559621334075928,0.16716443002223969,14.613615989685059
3.700929641723633,0.16670584678649902,14.584948539733887
3.646211862564087,0.16625195741653442,14.556493759155273
3.5918052196502686,0.16580277681350708,14.528252601623535
3.537656545639038,0.16535593569278717,14.500020980834961
3.4838151931762695,0.1649138331413269,14.47200870513916
3.4302761554718018,0.1644764095544815,14.4442138671875
3.3770108222961426,0.1640423685312271,14.416525840759277
3.3240158557891846,0.16361169517040253,14.38894271850586
3.271312713623047,0.16318555176258087,14.361568450927734
3.218874216079712,0.16276270151138306,14.334297180175781
3.1666970252990723,0.1623430848121643,14.307125091552734
3.1148011684417725,0.16192784905433655,14.28015422821045
3.063161849975586,0.16151584684848785,14.25328540802002
3.011798143386841,0.16110819578170776,14.226618766784668
2.960665225982666,0.16070261597633362,14.199953079223633
2.909823417663574,0.16030248999595642,14.173591613769531
2.859205484390259,0.15990428626537323,14.147221565246582
2.8088505268096924,0.1595102697610855,14.121045112609863
2.7587366104125977,0.15911932289600372,14.094965934753418
2.7088797092437744,0.15873251855373383,14.069079399108887
2.6592397689819336,0.15834760665893555,14.043188095092773
2.6098523139953613,0.15796683728694916,14.017492294311523
2.5607151985168457,0.15759021043777466,13.99199390411377
2.5117902755737305,0.15721553564071655,13.966499328613281
2.4631083011627197,0.1568448394536972,13.941189765930176
2.4146673679351807,0.156478151679039,13.916070938110352
2.3664307594299316,0.15611325204372406,13.89094352722168
2.3184285163879395,0.15575221180915833,13.865997314453125
2.2706422805786133,0.15539394319057465,13.841133117675781
2.223071336746216,0.155038520693779,13.816361427307129
2.1757280826568604,0.15468697249889374,13.791770935058594
2.1285946369171143,0.15433818101882935,13.767268180847168
2.081669569015503,0.15399214625358582,13.742852210998535
2.0349509716033936,0.15364886820316315,13.718525886535645
1.9884496927261353,0.15330933034420013,13.694374084472656
1.9485911130905151,0.15347981452941895,13.715645790100098
1.91385817527771,0.15407194197177887,13.774497032165527
1.8797389268875122,0.15474280714988708,13.840307235717773
1.8453288078308105,0.1554216742515564,13.90675163269043
1.8105871677398682,0.15610557794570923,13.973567008972168
1.7755444049835205,0.15679757297039032,14.041023254394531
1.7401896715164185,0.15749727189540863,14.109085083007812
1.7045223712921143,0.15820516645908356,14.177796363830566
1.6685094833374023,0.15891873836517334,14.246931076049805
1.684403657913208,0.16474922001361847,14.77486515045166
1.6528093814849854,0.16613049805164337,14.903881072998047
1.6079155206680298,0.16621717810630798,14.91666030883789
1.5629751682281494,0.16630558669567108,14.929459571838379
1.5179862976074219,0.1663956195116043,14.942269325256348
1.4729554653167725,0.1664881408214569,14.955167770385742
1.4278701543807983,0.1665818840265274,14.968038558959961
1.3827388286590576,0.16667790710926056,14.980979919433594
1.3375521898269653,0.16677527129650116,14.993905067443848
1.2923139333724976,0.16687452793121338,15.006864547729492
1.2499929666519165,0.167373389005661,15.055631637573242
1.2095204591751099,0.16816914081573486,15.130993843078613
1.168843388557434,0.169000506401062,15.209453582763672
1.1277422904968262,0.1698388159275055,15.288430213928223
1.0862358808517456,0.17068783938884735,15.368261337280273
1.044315218925476,0.1715475618839264,15.448945045471191
1.0019901990890503,0.17242112755775452,15.530762672424316
0.9592136740684509,0.1733020544052124,15.613128662109375
0.9159762859344482,0.17418967187404633,15.695980072021484
-1.5556246042251587,0.02032090537250042,0.971767246723175
-1.5611950159072876,0.020354755222797394,0.968600869178772
-1.566808819770813,0.020389236509799957,0.9654393196105957
-1.5724130868911743,0.020423652604222298,0.9622493386268616
-1.578055739402771,0.020458629354834557,0.9590603709220886
-1.5837095975875854,0.02049381285905838,0.9558554291725159
-1.5893843173980713,0.020529329776763916,0.9526402950286865
-1.5950838327407837,0.020565226674079895,0.9494169354438782
-1.600792407989502,0.02060130424797535,0.9461758136749268
-1.6065385341644287,0.02063792757689953,0.9429334402084351
-1.6122946739196777,0.02067473903298378,0.9396733045578003
-1.6180585622787476,0.020711714401841164,0.9363940954208374
-1.6238603591918945,0.02074923925101757,0.9331130981445312
-1.6296716928482056,0.020786944776773453,0.9298133850097656
-1.635507345199585,0.02082502655684948,0.9265034794807434
-1.6413654088974,0.020863454788923264,0.9231818914413452
-1.6472480297088623,0.020902259275317192,0.9198495745658875
-1.6531575918197632,0.020941467955708504,0.9165075421333313
-1.6590884923934937,0.020981011912226677,0.9131524562835693
-1.6650251150131226,0.021020689979195595,0.90977543592453
-1.670989990234375,0.021060790866613388,0.9063887000083923
-1.6769951581954956,0.021101461723446846,0.9029983878135681
-1.6830048561096191,0.021142253652215004,0.8995848298072815
-1.6890416145324707,0.021183449774980545,0.8961600065231323
-1.6951030492782593,0.02122502215206623,0.8927224278450012
-1.7011873722076416,0.021266944706439972,0.8892706632614136
-1.7072944641113281,0.02130921557545662,0.8858045339584351
-1.7134315967559814,0.021351929754018784,0.8823274374008179
-1.7195911407470703,0.021394986659288406,0.8788352608680725
-1.7257550954818726,0.02143816463649273,0.8753184080123901
-1.731961965560913,0.021481942385435104,0.8717964291572571
-1.7381978034973145,0.021526144817471504,0.8682616353034973
-1.7444571256637573,0.021570706740021706,0.8647112250328064
-1.7507396936416626,0.02161562256515026,0.8611445426940918
-1.7570464611053467,0.021660903468728065,0.8575620055198669
-1.7633830308914185,0.02170662023127079,0.8539659976959229
-1.7697430849075317,0.021752692759037018,0.8503531217575073
-1.7761471271514893,0.021799376234412193,0.8467328548431396
-1.7825547456741333,0.021846171468496323,0.8430856466293335
-1.7889914512634277,0.021893389523029327,0.8394232988357544
-1.7954750061035156,0.021941253915429115,0.8357539176940918
-1.8019615411758423,0.02198922261595726,0.8320567011833191
-1.8084934949874878,0.022037815302610397,0.8283509612083435
-1.8150506019592285,0.02208678610622883,0.8246269822120667
-1.8216378688812256,0.02213619276881218,0.8208868503570557
-1.8282502889633179,0.022185977548360825,0.8171278834342957
-1.8348872661590576,0.022236132994294167,0.8133496046066284
-1.8415710926055908,0.022286927327513695,0.8095614314079285
-1.8482800722122192,0.022338097915053368,0.8057535886764526
-1.8549985885620117,0.022389456629753113,0.8019188642501831
-1.861786961555481,0.02244173362851143,0.7980830669403076
-1.868578553199768,0.0224941223859787,0.7942171692848206
-1.875395655632019,0.022546891123056412,0.7903304696083069
-1.8822611570358276,0.022600319236516953,0.7864322066307068
-1.8891552686691284,0.022654162719845772,0.7825137376785278
-1.8960790634155273,0.022708440199494362,0.7785751223564148
-1.903052568435669,0.022763390094041824,0.774624228477478
-1.9100286960601807,0.022818446159362793,0.770641565322876
-1.917055368423462,0.02287418395280838,0.766646146774292
-1.9241079092025757,0.022930311039090157,0.7626277804374695
-1.931213617324829,0.02298714779317379,0.7585967779159546
-1.9383506774902344,0.023044437170028687,0.7545441389083862
-1.9455145597457886,0.02310212329030037,0.7504677772521973
-1.9527058601379395,0.023160219192504883,0.7463676333427429
-1.9599496126174927,0.023219015449285507,0.7422528862953186
-1.9672210216522217,0.023278221487998962,0.7381137013435364
-1.9745203256607056,0.023337839171290398,0.7339497804641724
-1.9818748235702515,0.02339819259941578,0.7297709584236145
-1.9892610311508179,0.02345900423824787,0.7255680561065674
-1.9967013597488403,0.023520536720752716,0.7213488221168518
-2.0041708946228027,0.023582497611641884,0.7171037793159485
-2.0116689205169678,0.023644881322979927,0.7128323912620544
-2.0191965103149414,0.02370769903063774,0.7085347175598145
-2.0267789363861084,0.023771245032548904,0.7042191028594971
-2.0344173908233643,0.02383553795516491,0.6998855471611023
-2.0420610904693604,0.023899979889392853,0.695516049861908
-2.04976487159729,0.02396521531045437,0.691129207611084
-2.057526111602783,0.02403121255338192,0.6867232918739319
-2.0653176307678223,0.024097653105854988,0.6822888255119324
-2.0731396675109863,0.024164538830518723,0.6778255105018616
-2.0810203552246094,0.024232203140854836,0.6733421683311462
-2.0889320373535156,0.02430032379925251,0.6688294410705566
-2.0969033241271973,0.02436922863125801,0.6642958521842957
-2.1049060821533203,0.02443859539926052,0.6597321033477783
-2.112969160079956,0.024508759379386902,0.6551468372344971
-2.1210691928863525,0.024579448625445366,0.6505321264266968
-2.1292309761047363,0.024650949984788895,0.6458951830863953
-2.137425661087036,0.024722931906580925,0.6412267088890076
-2.1456527709960938,0.02479538507759571,0.6365261673927307
-2.1539430618286133,0.024868672713637352,0.6318022608757019
-2.162297010421753,0.02494279481470585,0.6270544528961182
-2.170684337615967,0.025017406791448593,0.6222735643386841
-2.1791059970855713,0.025092516094446182,0.6174592971801758
-2.1876230239868164,0.025168828666210175,0.6126285195350647
-2.1961441040039062,0.025245293974876404,0.6077549457550049
-2.2047314643859863,0.025322627276182175,0.6028554439544678
-2.2133848667144775,0.025400828570127487,0.5979294776916504
-2.2220780849456787,0.025479592382907867,0.5929691195487976
-2.230839490890503,0.025559253990650177,0.587981641292572
-2.2396373748779297,0.02563943900167942,0.582957923412323
-2.248504400253296,0.02572053112089634,0.57790607213974
-2.2574410438537598,0.025802534073591232,0.57282555103302
-2.2664148807525635,0.025885075330734253,0.5677074193954468
-2.2754602432250977,0.02596854977309704,0.5625597834587097
-2.284543514251709,0.026052571833133698,0.5573737025260925
-2.293699026107788,0.026137538254261017,0.5521571040153503
-2.3028931617736816,0.026223067194223404,0.5469013452529907
-2.3121609687805176,0.026309555396437645,0.5416140556335449
-2.321502923965454,0.02639700658619404,0.5362945795059204
-2.3308849334716797,0.02648504264652729,0.5309346318244934
-2.3403422832489014,0.026574058458209038,0.5255414843559265
-2.349876880645752,0.026664074510335922,0.5201147794723511
-2.3594532012939453,0.026754695922136307,0.5146461725234985
-2.3691067695617676,0.026846323162317276,0.5091428160667419
-2.3788044452667236,0.026938578113913536,0.5035967230796814
-2.388619899749756,0.02703230455517769,0.49802300333976746
-2.3984415531158447,0.027126234024763107,0.4923975169658661
-2.408381462097168,0.027221636846661568,0.4867427349090576
-2.418365716934204,0.027317676693201065,0.48104286193847656
-2.4284324645996094,0.02741478756070137,0.47530481219291687
-2.4385826587677,0.027512984350323677,0.46952804923057556
-2.4487786293029785,0.027611838653683662,0.46370449662208557
-2.4590601921081543,0.02771180123090744,0.45784109830856323
-2.469388246536255,0.02781243622303009,0.45192986726760864
-2.4798030853271484,0.027914194390177727,0.4459775686264038
-2.4903452396392822,0.02801753580570221,0.43999043107032776
-2.500897169113159,0.028121139854192734,0.433946818113327
-2.511577606201172,0.028226343914866447,0.4278668463230133
-2.5223093032836914,0.02833227626979351,0.4217362701892853
-2.5331313610076904,0.028439383953809738,0.4155610203742981
-2.5440056324005127,0.02854723297059536,0.4093339741230011
-1.9083267450332642,0.02140357904136181,0.3010490834712982
-2.162945032119751,0.024247728288173676,0.33441880345344543
-2.5772340297698975,0.028878560289740562,0.3903810977935791
-2.5884885787963867,0.0289913322776556,0.38396599888801575
-2.5997977256774902,0.029104888439178467,0.377495676279068
-2.6112060546875,0.029219727963209152,0.3709758222103119
-2.622713804244995,0.02933584898710251,0.36440545320510864
-2.6343228816986084,0.029453285038471222,0.3577839136123657
-2.6459901332855225,0.029571549966931343,0.35110440850257874
-2.657806158065796,0.029691657051444054,0.3443780541419983
-2.669682264328003,0.02981262095272541,0.33759215474128723
-2.681663990020752,0.029934948310256004,0.3307516872882843
-2.693753242492676,0.030058667063713074,0.3238558769226074
-2.705904245376587,0.03018326498568058,0.3168981969356537
-2.7181646823883057,0.030309278517961502,0.3098834753036499
-2.7305846214294434,0.03043726645410061,0.30281612277030945
-2.743069887161255,0.030566180124878883,0.29568445682525635
-2.755620002746582,0.030696021392941475,0.2884877324104309
-2.768334150314331,0.030827892944216728,0.2812352776527405
-2.781165838241577,0.030961280688643456,0.2739209234714508
-2.7940661907196045,0.03109564445912838,0.2665388584136963
-2.807086229324341,0.031231552362442017,0.2590929865837097
-2.8202266693115234,0.03136901557445526,0.25158223509788513
-2.8334898948669434,0.03150806576013565,0.24400556087493896
-2.8468782901763916,0.03164873272180557,0.23636190593242645
-2.8603928089141846,0.031791023910045624,0.22865010797977448
-2.8739826679229736,0.031934384256601334,0.22086496651172638
-2.8877549171447754,0.03208000212907791,0.21301360428333282
-2.9016060829162598,0.03222673386335373,0.2050868570804596
-2.9155890941619873,0.032375168055295944,0.19708751142024994
-2.9297077655792236,0.032525353133678436,0.18901444971561432
-2.943962812423706,0.0326772965490818,0.1808663308620453
-2.958357095718384,0.03283103555440903,0.17264196276664734
-2.9728918075561523,0.0329865887761116,0.16434001922607422
-2.98757004737854,0.03314398601651192,0.15595918893814087
-3.0023350715637207,0.033302612602710724,0.14749525487422943
-3.0173048973083496,0.03346377611160278,0.13895273208618164
-3.032365083694458,0.03362620994448662,0.13032466173171997
-3.047635555267334,0.033791251480579376,0.12161486595869064
-3.0629994869232178,0.03395760431885719,0.1128169521689415
-3.0785794258117676,0.034126631915569305,0.10393405705690384
-3.094256639480591,0.03429702669382095,0.09496039897203445
-3.110093355178833,0.03446947783231735,0.08589664846658707
-3.1260926723480225,0.034644030034542084,0.07674127072095871
-3.142256021499634,0.03482069820165634,0.06749261915683746
-3.158651351928711,0.035000238567590714,0.05815029516816139
-3.1751527786254883,0.03518126532435417,0.04871005192399025
-3.1918272972106934,0.03536452353000641,0.03917158022522926
-3.183943748474121,0.03527601435780525,0.029305478557944298
-1.6422240734100342,0.01819434016942978,0.010076687671244144
-1.6242212057113647,0.017994631081819534,0.004983063787221909
-1.6084529161453247,0.017819851636886597,2.95458247482762e-16
-1.5929863452911377,0.01764858141541481,-0.0048872362822294235
-1.5778125524520874,0.017480719834566116,-0.0096814576536417
-1.562923550605774,0.017316170036792755,-0.014385374262928963
-1.5483644008636475,0.01715542934834957,-0.019002243876457214
-1.537396788597107,0.017034633085131645,-0.02358522079885006
-1.530505657196045,0.016959156841039658,-0.028176378458738327
-1.5236728191375732,0.01688447780907154,-0.03272702172398567
-1.5168768167495728,0.016810353845357895,-0.03723723813891411
-1.510167121887207,0.016737334430217743,-0.0417088121175766
-1.5035163164138794,0.01666511408984661,-0.04614178091287613
-1.4969233274459839,0.016593677923083305,-0.05053672194480896
-1.4903621673583984,0.016522735357284546,-0.054893288761377335
-1.483883261680603,0.016452843323349953,-0.05921385809779167
-1.4774351119995117,0.01638343185186386,-0.06349705159664154
-1.471067190170288,0.016315044835209846,-0.06774549931287766
-1.464726209640503,0.016247091814875603,-0.07195738703012466
-1.4584424495697021,0.016179904341697693,-0.07613461464643478
-1.4522117376327515,0.016113439574837685,-0.08027756214141846
-1.4460577964782715,0.016047952696681023,-0.08438815176486969
-1.4399316310882568,0.01598290354013443,-0.0884641483426094
-1.4338334798812866,0.015918290242552757,-0.09250589460134506
-1.427807092666626,0.015854597091674805,-0.09651666134595871
-1.4218480587005615,0.01579177752137184,-0.10049688816070557
-1.4162840843200684,0.015733467414975166,-0.10447139292955399
-1.4126352071762085,0.015696557238698006,-0.1085607185959816
-1.4090737104415894,0.01566074974834919,-0.11263658106327057
-1.405529260635376,0.01562526263296604,-0.11669398844242096
-1.402016282081604,0.015590252354741096,-0.12073442339897156
-1.398493766784668,0.015555265359580517,-0.12475457787513733
-1.3950024843215942,0.015520753338932991,-0.12875820696353912
-1.3915283679962158,0.015486558899283409,-0.13274429738521576
-1.388057827949524,0.015452530235052109,-0.13671176135540009
-1.384617805480957,0.015418965369462967,-0.14066341519355774
-1.381182074546814,0.015385572798550129,-0.1445968747138977
-1.3777624368667603,0.015352483838796616,-0.14851351082324982
-1.3743598461151123,0.015319706872105598,-0.15241363644599915
-1.3709614276885986,0.015287097543478012,-0.1562959998846054
-1.3675918579101562,0.015254932455718517,-0.16016361117362976
-1.3642268180847168,0.015222937799990177,-0.16401386260986328
-1.360877513885498,0.015191239304840565,-0.16784822940826416
-1.3575444221496582,0.015159839764237404,-0.17166699469089508
-1.354228138923645,0.015128747560083866,-0.17547044157981873
-1.3509145975112915,0.015097803436219692,-0.17925694584846497
-1.347772240638733,0.01506888959556818,-0.18304941058158875
-1.3451063632965088,0.015045423991978168,-0.18689197301864624
-1.3426507711410522,0.01502443291246891,-0.190751314163208
-1.3403050899505615,0.015004795044660568,-0.19461490213871002
-1.338191270828247,0.014987877570092678,-0.19850192964076996
-1.3361616134643555,0.014972029253840446,-0.20239226520061493
-1.334319829940796,0.014958413317799568,-0.20630282163619995
-1.332834243774414,0.014948920346796513,-0.21026195585727692
-1.331472396850586,0.014940946362912655,-0.21423570811748505
-1.330113410949707,0.014933139085769653,-0.218205526471138
-1.3287570476531982,0.014925493858754635,-0.22217142581939697
-1.3273985385894775,0.014917957596480846,-0.22613270580768585
-1.3260475397109985,0.014910637401044369,-0.23009108006954193
-1.3246946334838867,0.01490342803299427,-0.23404502868652344
-1.3233387470245361,0.014896318316459656,-0.2379944622516632
-1.3219913244247437,0.014889435842633247,-0.241941437125206
-1.3206409215927124,0.014882653020322323,-0.24588406085968018
-1.3192938566207886,0.014876040630042553,-0.24982352554798126
-1.3179441690444946,0.014869529753923416,-0.2537587881088257
-1.316597580909729,0.01486318651586771,-0.25769099593162537
-1.3152536153793335,0.014857005327939987,-0.2616201937198639
-1.3139067888259888,0.014850924722850323,-0.26554539799690247
-1.3125685453414917,0.014845073223114014,-0.26946893334388733
-1.3112229108810425,0.014839270152151585,-0.2733876705169678
-1.3098844289779663,0.014833681285381317,-0.27730467915534973
-1.3085442781448364,0.014828205108642578,-0.28121817111968994
-1.307206630706787,0.014822890982031822,-0.285129189491272
-1.3058665990829468,0.014817681163549423,-0.28903666138648987
-1.3045295476913452,0.014812637120485306,-0.2929418981075287
-1.3031953573226929,0.01480775885283947,-0.2968449592590332
-1.301892876625061,0.01480337418615818,-0.3007526397705078
-1.3009871244430542,0.014803637750446796,-0.30475080013275146
-1.3006619215011597,0.014810649678111076,-0.30888697504997253
-1.3004162311553955,0.014818718656897545,-0.3130463659763336
-1.300171971321106,0.014826955273747444,-0.31721073389053345
-1.2999255657196045,0.014835319481790066,-0.32137927412986755
-1.2996792793273926,0.014843837358057499,-0.32555270195007324
-1.2994321584701538,0.014852499589323997,-0.3297308385372162
-1.2991865873336792,0.014861331321299076,-0.3339143395423889
-1.29893958568573,0.014870300889015198,-0.3381025493144989
-1.2986916303634644,0.014879414811730385,-0.34229570627212524
-1.2984439134597778,0.014888687059283257,-0.346494197845459
-1.298195719718933,0.014898108318448067,-0.35069790482521057
-1.2979474067687988,0.014907682314515114,-0.35490700602531433
-1.2976996898651123,0.014917422086000443,-0.3591218590736389
-1.2974507808685303,0.014927304349839687,-0.3633420169353485
-1.2972017526626587,0.014937344007194042,-0.36756786704063416
-1.2969518899917603,0.014947530813515186,-0.3717992901802063
-1.2967013120651245,0.014957869425415993,-0.3760364055633545
-1.2964509725570679,0.014968369156122208,-0.38027963042259216
-1.2961995601654053,0.014979016035795212,-0.38452860713005066
-1.2959483861923218,0.014989826828241348,-0.38878387212753296
-1.2956974506378174,0.015000801533460617,-0.3930455148220062
-1.2954448461532593,0.015011918731033802,-0.39731302857398987
-1.2951929569244385,0.015023207291960716,-0.4015873074531555
-1.2949403524398804,0.015034648589789867,-0.40586787462234497
-1.294687032699585,0.015046246349811554,-0.41015493869781494
-1.294433832168579,0.015058010816574097,-0.4144488573074341
-1.2941797971725464,0.015069928951561451,-0.4187493324279785
-1.2939248085021973,0.015082002617418766,-0.4230565130710602
-1.2936702966690063,0.01509424764662981,-0.42737093567848206
-1.2934156656265259,0.015106658451259136,-0.431692510843277
-1.2931602001190186,0.015119228512048721,-0.4360211193561554
-1.292904019355774,0.015131955966353416,-0.4403568208217621
-1.2926477193832397,0.015144853852689266,-0.4447000324726105
-1.2923908233642578,0.015157912857830524,-0.4490506052970886
-1.2923147678375244,0.015173266641795635,-0.4534723460674286
-1.2929871082305908,0.015197593718767166,-0.4581683874130249
-1.2941031455993652,0.01522733736783266,-0.46303749084472656
-1.2952220439910889,0.015257323160767555,-0.46792522072792053
-1.296345591545105,0.015287574380636215,-0.4728323519229889
-1.2974753379821777,0.015318110585212708,-0.47775962948799133
-1.298610806465149,0.015348928049206734,-0.4827071726322174
-1.2997483015060425,0.015379983931779861,-0.48767372965812683
-1.3008874654769897,0.015411276370286942,-0.492659330368042
-1.3020373582839966,0.015442914329469204,-0.49766767024993896
-1.3031883239746094,0.01547478511929512,-0.5026952028274536
-1.3043454885482788,0.015506950207054615,-0.5077441930770874
-1.3055047988891602,0.015539363957941532,-0.5128130912780762
-1.3066744804382324,0.015572126023471355,-0.5179055333137512
-1.3078453540802002,0.015605129301548004,-0.5230180621147156
-1.3090187311172485,0.01563839055597782,-0.5281513333320618
-1.3102024793624878,0.015672005712985992,-0.5333088040351868
-1.3113877773284912,0.01570587046444416,-0.5384870171546936
-1.3125791549682617,0.01574004255235195,-0.5436880588531494
-1.3139598369598389,0.015776721760630608,-0.5489888191223145
-1.316076397895813,0.01582249253988266,-0.5546218156814575
-1.318696141242981,0.01587458699941635,-0.5604962110519409
-1.3221322298049927,0.015936806797981262,-0.5667519569396973
-1.3258885145187378,0.016003206372261047,-0.5731837749481201
-1.330574631690979,0.016081171110272408,-0.5800610780715942
-1.3359345197677612,0.016167649999260902,-0.5872817635536194
-1.3413361310958862,0.01625501923263073,-0.5945733785629272
-1.3467990159988403,0.016343524679541588,-0.6019454598426819
-1.3523222208023071,0.01643315888941288,-0.6093985438346863
-1.3579145669937134,0.016524039208889008,-0.6169376373291016
-1.3635684251785278,0.016616078093647957,-0.6245602965354919
-1.3692876100540161,0.016709329560399055,-0.6322692632675171
-1.375051736831665,0.016803551465272903,-0.6400561928749084
-1.3809043169021606,0.016899285838007927,-0.647942304611206
-1.3868088722229004,0.016996091231703758,-0.6559117436408997
-1.3927805423736572,0.017094161361455917,-0.6639726161956787
-1.3988217115402222,0.017193535342812538,-0.6721271276473999
-1.4049315452575684,0.017294209450483322,-0.6803761124610901
-1.4122726917266846,0.017410526052117348,-0.6892881989479065
-1.4239728450775146,0.01758117415010929,-0.7004162073135376
-1.4361145496368408,0.01775796338915825,-0.7118686437606812
-1.4484919309616089,0.01793837733566761,-0.7235482335090637
-1.4611456394195557,0.018122943118214607,-0.735478937625885
-1.4740574359893799,0.018311455845832825,-0.7476551532745361
-1.4872262477874756,0.01850392483174801,-0.7600800395011902
-1.5007325410842896,0.018701380118727684,-0.7727985978126526
-1.522065281867981,0.018997319042682648,-0.7897011041641235
-1.5550612211227417,0.019440187141299248,-0.8128854036331177
-1.589550256729126,0.019903356209397316,-0.8371332883834839
-1.6257481575012207,0.02038964256644249,-0.8625782132148743
-2.053770065307617,0.025799883529543877,-1.0977630615234375
-2.6382806301116943,0.03319722041487694,-1.4206141233444214
-2.631962776184082,0.03317267820239067,-1.4276454448699951
-2.6256580352783203,0.03314853459596634,-1.4346685409545898
-2.619344472885132,0.03312451019883156,-1.44167160987854
-2.6130404472351074,0.03310083970427513,-1.448664903640747
-2.6067497730255127,0.03307756781578064,-1.4556505680084229
-2.6004714965820312,0.03305468708276749,-1.462628722190857
-2.594203233718872,0.033032163977622986,-1.4695979356765747
-2.587947368621826,0.03301003575325012,-1.4765599966049194
-2.581685781478882,0.03298806771636009,-1.4835048913955688
-2.5754342079162598,0.032966457307338715,-1.4904413223266602
-2.569195508956909,0.03294524550437927,-1.4973716735839844
-2.5629703998565674,0.03292444720864296,-1.5042965412139893
-2.5567548274993896,0.0329040065407753,-1.5112136602401733
-2.550534963607788,0.032883744686841965,-1.5181152820587158
-2.544327974319458,0.032863885164260864,-1.525011420249939
-2.5380401611328125,0.032843217253685,-1.5318461656570435
-2.5297555923461914,0.03279689699411392,-1.5374541282653809
-2.521430730819702,0.03275018930435181,-1.543007493019104
-2.513136863708496,0.03270401433110237,-1.5485494136810303
-2.5048530101776123,0.032658107578754425,-1.554067850112915
-2.496596574783325,0.03261268883943558,-1.5595734119415283
-2.4883739948272705,0.03256784752011299,-1.5650705099105835
-2.4801597595214844,0.032523248344659805,-1.5705437660217285
-2.471923828125,0.03247850015759468,-1.5759741067886353
-2.462085247039795,0.032412782311439514,-1.5803461074829102
-2.4514803886413574,0.0323370061814785,-1.5841799974441528
-2.4409406185150146,0.03226208686828613,-1.5880060195922852
-2.4304330348968506,0.032187603414058685,-1.591803789138794
-2.4199862480163574,0.032113928347826004,-1.5955921411514282
-2.409573554992676,0.03204071521759033,-1.5993543863296509
-2.3992185592651367,0.03196826949715614,-1.6031064987182617
-2.388904333114624,0.03189637511968613,-1.6068378686904907
-2.378612756729126,0.031824786216020584,-1.6105365753173828
-2.3683931827545166,0.03175416588783264,-1.6142363548278809
-2.3582241535186768,0.03168422728776932,-1.617923617362976
-2.348097085952759,0.03161485493183136,-1.62159264087677
-2.3379955291748047,0.03154583275318146,-1.6252329349517822
-2.3279356956481934,0.03147737681865692,-1.6288557052612305
-2.3179280757904053,0.03140963241457939,-1.6324691772460938
-2.3079850673675537,0.0313427671790123,-1.636082410812378
-2.2980475425720215,0.03127598017454147,-1.6396541595458984
-2.2881722450256348,0.031210044398903847,-1.6432251930236816
-2.2783262729644775,0.031144512817263603,-1.6467725038528442
-2.2685465812683105,0.031079892069101334,-1.6503231525421143
-2.2587926387786865,0.031015630811452866,-1.653848648071289
-2.249056577682495,0.030951613560318947,-1.6573429107666016
-2.2393977642059326,0.030888669192790985,-1.6608505249023438
-2.2297537326812744,0.030825931578874588,-1.6643258333206177
-2.2201404571533203,0.030763620510697365,-1.6677807569503784
-2.210587501525879,0.030702153220772743,-1.6712383031845093
-2.2010693550109863,0.03064117208123207,-1.6746795177459717
-2.1915833950042725,0.03058064542710781,-1.6781030893325806
-2.1815733909606934,0.030512792989611626,-1.6810805797576904
-2.1711490154266357,0.030439093708992004,-1.6836891174316406
-2.16070556640625,0.03036506474018097,-1.6862311363220215
-2.1491024494171143,0.030274631455540657,-1.6878105401992798
-2.137296438217163,0.03018118068575859,-1.689165711402893
-2.1255733966827393,0.03008873388171196,-1.6905208826065063
-2.113830089569092,0.029995830729603767,-1.6917942762374878
-2.1013824939727783,0.02989273890852928,-1.6924346685409546
-2.088792085647583,0.029787376523017883,-1.6928856372833252
-2.075129985809326,0.02966645173728466,-1.692387580871582
-2.061034917831421,0.029538996517658234,-1.6914477348327637
-2.047105550765991,0.029413552954792976,-1.690553069114685
-2.0332601070404053,0.029288962483406067,-1.6896380186080933
-2.0195329189300537,0.029165716841816902,-1.6887320280075073
-2.0059080123901367,0.029043592512607574,-1.6878228187561035
-1.992429494857788,0.028923239558935165,-1.6869492530822754
-1.979034662246704,0.0288037471473217,-1.6860594749450684
-1.965764045715332,0.028685715049505234,-1.685189127922058
-1.952584981918335,0.02856866829097271,-1.6843113899230957
-1.939517617225647,0.028452908620238304,-1.6834449768066406
-1.9265645742416382,0.028338482603430748,-1.6825933456420898
-1.9137002229690552,0.028225017711520195,-1.6817353963851929
-1.9009549617767334,0.02811296470463276,-1.680898904800415
-1.888291835784912,0.02800178714096546,-1.6800525188446045
-1.8757394552230835,0.027891911566257477,-1.679222822189331
-1.8632712364196777,0.027782948687672615,-1.67838716506958
-1.8509175777435303,0.027675358578562737,-1.6775739192962646
-1.8386505842208862,0.027568727731704712,-1.6767592430114746
-1.826465368270874,0.02746298909187317,-1.6759394407272339
-1.8143880367279053,0.027358537539839745,-1.6751395463943481
-1.8023929595947266,0.027254994958639145,-1.674337387084961
-1.790480136871338,0.027152366936206818,-1.6735336780548096
-1.7786561250686646,0.02705075591802597,-1.672735571861267
-1.765190601348877,0.0269237719476223,-1.67030668258667
-1.7509671449661255,0.026784710586071014,-1.667059302330017
-1.7368842363357544,0.02664724364876747,-1.6638399362564087
-1.7212167978286743,0.026484835892915726,-1.6589877605438232
-1.703782320022583,0.026294443756341934,-1.6522966623306274
-1.6866230964660645,0.0261074248701334,-1.6457269191741943
-1.6696704626083374,0.025922736153006554,-1.6392149925231934
-1.6529541015625,0.025740858167409897,-1.6327928304672241
-1.6364725828170776,0.025561783462762833,-1.6264621019363403
-1.61978018283844,0.025378549471497536,-1.61978018283844
-1.6038137674331665,0.025205837562680244,-1.613684892654419
-1.588063359260559,0.02503570169210434,-1.6076724529266357
-1.5725221633911133,0.02486804872751236,-1.6017385721206665
-1.5571871995925903,0.024702852591872215,-1.5958831310272217
-1.542054533958435,0.024540064856410027,-1.5901050567626953
-1.5271313190460205,0.024379819631576538,-1.5844143629074097
-1.5123909711837769,0.024221712723374367,-1.5787864923477173
-1.497831106185913,0.024065714329481125,-1.573221206665039
-1.4834693670272827,0.023912131786346436,-1.567739725112915
-1.4692919254302979,0.023760752752423286,-1.5623301267623901
-1.4552850723266602,0.02361137792468071,-1.5569803714752197
-1.4414558410644531,0.023464130237698555,-1.551700234413147
-1.4278000593185425,0.02331896498799324,-1.5464880466461182
-1.4141168594360352,0.02317260019481182,-1.5411269664764404
-1.3991166353225708,0.023003820329904556,-1.5342016220092773
-1.3840179443359375,0.022832492366433144,-1.5270285606384277
-1.36785888671875,0.02264266274869442,-1.5185365676879883
-1.3516888618469238,0.02245156839489937,-1.509874701499939
-1.3357349634170532,0.022262973710894585,-1.5012966394424438
-1.3184585571289062,0.022051164880394936,-1.491065502166748
-1.3007181882858276,0.021830303594470024,-1.4801286458969116
-1.2831227779388428,0.02161054126918316,-1.4691718816757202
-1.263933777809143,0.02136250026524067,-1.4561936855316162
-1.242299199104309,0.02107142098248005,-1.4401700496673584
-1.2173991203308105,0.020722875371575356,-1.420089602470398
-1.1933856010437012,0.02038716711103916,-1.4007521867752075
-1.1700751781463623,0.020061280578374863,-1.3819575309753418
-1.1475088596343994,0.019746018573641777,-1.3637670278549194
-1.1256515979766846,0.01944088004529476,-1.3461523056030273
-1.1044435501098633,0.019144931808114052,-1.3290544748306274
-1.0838509798049927,0.0188576802611351,-1.3124446868896484
-1.0638997554779053,0.018579663708806038,-1.2963656187057495
-1.04449462890625,0.01830931007862091,-1.280712604522705
-1.0256569385528564,0.018047071993350983,-1.2655220031738281
-1.0073578357696533,0.01779252290725708,-1.2507686614990234
-0.9847108721733093,0.01745910942554474,-1.23035728931427
-14.271973609924316,0.25401970744132996,-17.944841384887695
-14.236458778381348,0.2543700337409973,-18.013349533081055
-14.200834274291992,0.25472351908683777,-18.082035064697266
-14.165093421936035,0.25508007407188416,-18.150890350341797
-14.129274368286133,0.25544044375419617,-18.219966888427734
-14.093317985534668,0.2558036148548126,-18.289194107055664
-14.057273864746094,0.25617048144340515,-18.358638763427734
-14.021098136901855,0.25654035806655884,-18.428247451782227
-13.984798431396484,0.25691333413124084,-18.498031616210938
-13.948516845703125,0.25729215145111084,-18.568187713623047
-13.912081718444824,0.25767362117767334,-18.638486862182617
-13.875415802001953,0.2580564022064209,-18.708833694458008
-13.838709831237793,0.25844407081604004,-18.779481887817383
-13.80202865600586,0.25883784890174866,-18.85053062438965
-13.765045166015625,0.25923171639442444,-18.921533584594727
-13.728067398071289,0.259631484746933,-18.992918014526367
-13.69091796875,0.26003384590148926,-19.06444549560547
-13.6536283493042,0.2604394555091858,-19.13616180419922
-13.616297721862793,0.2608502209186554,-19.208208084106445
-13.57882022857666,0.26126420497894287,-19.28044319152832
-13.541293144226074,0.26168331503868103,-19.353008270263672
-13.5034761428833,0.26210299134254456,-19.42556381225586
-13.465597152709961,0.2625276744365692,-19.498441696166992
-13.427703857421875,0.262958288192749,-19.571712493896484
-13.389595031738281,0.26339104771614075,-19.64509391784668
-13.351339340209961,0.2638273239135742,-19.718687057495117
-13.312989234924316,0.2642681896686554,-19.792573928833008
-13.274617195129395,0.26471513509750366,-19.86686897277832
-13.23589038848877,0.2651616036891937,-19.941076278686523
-13.197247505187988,0.26561641693115234,-20.0158634185791
-13.158390998840332,0.26607367396354675,-20.090784072875977
-13.1193265914917,0.2665335536003113,-20.16585350036621
-13.080201148986816,0.2669990360736847,-20.241296768188477
-13.040833473205566,0.2674665153026581,-20.31684112548828
-13.00141716003418,0.2679400146007538,-20.392793655395508
-12.961891174316406,0.2684183716773987,-20.46906280517578
-12.92214298248291,0.2688992917537689,-20.54547882080078
-12.882319450378418,0.2693859040737152,-20.622278213500977
-12.842365264892578,0.2698771059513092,-20.699378967285156
-12.802216529846191,0.2703716456890106,-20.776681900024414
-12.761940002441406,0.27087098360061646,-20.854305267333984
-12.721548080444336,0.271375447511673,-20.93227195739746
-12.680938720703125,0.27188292145729065,-21.010417938232422
-12.640192031860352,0.27239522337913513,-21.088886260986328
-12.599329948425293,0.272912859916687,-21.16771697998047
-12.5582275390625,0.27343320846557617,-21.2467041015625
-12.51698112487793,0.2739584147930145,-21.32601547241211
-12.475616455078125,0.2744891345500946,-21.405704498291016
-12.434128761291504,0.275025337934494,-21.485769271850586
-12.392486572265625,0.2755664587020874,-21.566162109375
-12.350582122802734,0.27611011266708374,-21.64670181274414
-12.308544158935547,0.2766592502593994,-21.727619171142578
12.64654541015625,0.09285740554332733,-5.933960914611816
12.719978332519531,0.09326276928186417,-5.920868873596191
12.790572166442871,0.0936470702290535,-5.90605354309082
12.858888626098633,0.09401451796293259,-5.889804363250732
12.92539119720459,0.09436856955289841,-5.8723578453063965
12.989811897277832,0.09470734000205994,-5.853614330291748
13.05241870880127,0.09503286331892014,-5.833717346191406
13.113198280334473,0.09534510225057602,-5.812681198120117
13.172574996948242,0.09564720094203949,-5.790712833404541
13.230377197265625,0.09593797475099564,-5.767753601074219
13.28585147857666,0.0962120071053505,-5.743494987487793
13.339659690856934,0.09647417068481445,-5.7182464599609375
12.780630111694336,0.09231023490428925,-5.432255744934082
12.305195808410645,0.08876100182533264,-5.18566370010376
12.409456253051758,0.08939789980649948,-5.184825897216797
12.493589401245117,0.08988919109106064,-5.175014019012451
12.564708709716797,0.09028657525777817,-5.15936803817749
12.632050514221191,0.09065669775009155,-5.141788005828857
12.694416046142578,0.0909910723567009,-5.12183141708374
12.754495620727539,0.09130912274122238,-5.100627422332764
12.811334609985352,0.0916040688753128,-5.077823162078857
12.865740776062012,0.09188178926706314,-5.053770065307617
12.919570922851562,0.09215559810400009,-5.02921724319458
12.971640586853027,0.09241707623004913,-5.003714084625244
13.022571563720703,0.09267070144414902,-4.9775166511535645
13.0729398727417,0.09292060136795044,-4.950855255126953
13.122699737548828,0.09316648542881012,-4.92371940612793
12.595002174377441,0.08931761980056763,-4.6816935539245605
12.429556846618652,0.08804437518119812,-4.576842784881592
12.393692970275879,0.08769167959690094,-4.520506381988525
12.37524700164795,0.08746370673179626,-4.470808982849121
12.36785888671875,0.08731512725353241,-4.425290584564209
12.365148544311523,0.08720067143440247,-4.381575107574463
12.370198249816895,0.0871419608592987,-4.340693950653076
12.383307456970215,0.08714091032743454,-4.302670478820801
12.402020454406738,0.08718007057905197,-4.266575336456299
12.428866386413574,0.08727707713842392,-4.233211517333984
12.460598945617676,0.08740898221731186,-4.201400279998779
12.49664306640625,0.0875716507434845,-4.170899868011475
12.54098892211914,0.08779292553663254,-4.1429829597473145
12.593236923217773,0.0880698412656784,-4.117434978485107
12.657732009887695,0.08843259513378143,-4.095580101013184
12.757808685302734,0.08904379606246948,-4.084765434265137
13.708534240722656,0.09558600187301636,-4.342843532562256
13.97343635559082,0.09733894467353821,-4.379637241363525
13.945168495178223,0.09704916924238205,-4.323836326599121
13.914496421813965,0.09674413502216339,-4.267577171325684
13.883976936340332,0.09644164890050888,-4.211658477783203
13.632946968078613,0.09461032599210739,-4.089877605438232
13.172615051269531,0.09133207052946091,-3.9077682495117188
13.79333209991455,0.09554928541183472,-4.045909404754639
13.763521194458008,0.09525750577449799,-3.991347312927246
13.73375129699707,0.09496742486953735,-3.9370765686035156
