-7.408949375152587891e+00,3.000695228576660156e+00,1.711554884910583496e+00
-7.429759025573730469e+00,3.004920482635498047e+00,1.668408155441284180e+00
-7.452577114105224609e+00,3.010058403015136719e+00,1.625563263893127441e+00
-7.475645065307617188e+00,3.015396595001220703e+00,1.582606196403503418e+00
-7.498884201049804688e+00,3.020903110504150391e+00,1.539512991905212402e+00
-7.522225856781005859e+00,3.026550769805908203e+00,1.496263742446899414e+00
-7.545683860778808594e+00,3.032345056533813477e+00,1.452856183052062988e+00
-7.569086074829101562e+00,3.038217306137084961e+00,1.409253239631652832e+00
-7.592708110809326172e+00,3.044278621673583984e+00,1.365502476692199707e+00
-7.616399288177490234e+00,3.050468921661376953e+00,1.321570634841918945e+00
-7.640162467956542969e+00,3.056789398193359375e+00,1.277453780174255371e+00
-7.663967609405517578e+00,3.063228845596313477e+00,1.233142852783203125e+00
-7.687958240509033203e+00,3.069844722747802734e+00,1.188656091690063477e+00
-7.712580680847167969e+00,3.076815605163574219e+00,1.144053339958190918e+00
-7.737907409667968750e+00,3.084170103073120117e+00,1.099329710006713867e+00
-7.768571376800537109e+00,3.093753337860107422e+00,1.055098414421081543e+00
-7.800308704376220703e+00,3.103864431381225586e+00,1.010703921318054199e+00
-7.832730770111083984e+00,3.114348173141479492e+00,9.660751819610595703e-01
-7.865493774414062500e+00,3.125068902969360352e+00,9.211563467979431152e-01
-7.898431301116943359e+00,3.135960817337036133e+00,8.759195208549499512e-01
-7.931664943695068359e+00,3.147073507308959961e+00,8.303713202476501465e-01
-7.965074062347412109e+00,3.158360004425048828e+00,7.844913005828857422e-01
-7.998914718627929688e+00,3.169922590255737305e+00,7.382968068122863770e-01
-8.032924652099609375e+00,3.181658744812011719e+00,6.917541027069091797e-01
-8.067113876342773438e+00,3.193572998046875000e+00,6.448577642440795898e-01
-8.101731300354003906e+00,3.205765247344970703e+00,5.976195931434631348e-01
-8.140544891357421875e+00,3.219726562500000000e+00,5.502831935882568359e-01
-8.188448905944824219e+00,3.237391471862792969e+00,5.030683875083923340e-01
-8.239198684692382812e+00,3.256289720535278320e+00,4.554588794708251953e-01
-8.290404319763183594e+00,3.275477886199951172e+00,4.072814285755157471e-01
-8.342417716979980469e+00,3.295096874237060547e+00,3.585395514965057373e-01
-8.557277679443359375e+00,3.379134893417358398e+00,3.151831924915313721e-01
-7.187723159790039062e+00,3.394424676895141602e+00,5.128431797027587891e+00
-6.994411945343017578e+00,3.288796424865722656e+00,4.926020622253417969e+00
-6.975847244262695312e+00,3.266015052795410156e+00,4.849186420440673828e+00
-6.964769840240478516e+00,3.247040510177612305e+00,4.778368949890136719e+00
-6.956273555755615234e+00,3.229544878005981445e+00,4.710028171539306641e+00
-6.947790145874023438e+00,3.212320804595947266e+00,4.642364978790283203e+00
-6.939393520355224609e+00,3.195398092269897461e+00,4.575415134429931641e+00
-6.931135654449462891e+00,3.178795337677001953e+00,4.509198188781738281e+00
-6.923078536987304688e+00,3.162535429000854492e+00,4.443737506866455078e+00
-6.915147781372070312e+00,3.146579027175903320e+00,4.378969192504882812e+00
-6.907394886016845703e+00,3.130944967269897461e+00,4.314909934997558594e+00
-6.899813652038574219e+00,3.115624904632568359e+00,4.251540660858154297e+00
-6.892297267913818359e+00,3.100566625595092773e+00,4.188780307769775391e+00
-6.885239601135253906e+00,3.085942029953002930e+00,4.126853942871093750e+00
-6.881908893585205078e+00,3.073204755783081055e+00,4.067669868469238281e+00
-6.883546352386474609e+00,3.062885522842407227e+00,4.011850357055664062e+00
-6.886598587036132812e+00,3.053381681442260742e+00,3.957221269607543945e+00
-6.889656066894531250e+00,3.044061899185180664e+00,3.902941942214965820e+00
-6.892693519592285156e+00,3.034911870956420898e+00,3.848989963531494141e+00
-6.895739555358886719e+00,3.025942087173461914e+00,3.795373916625976562e+00
-6.898769378662109375e+00,3.017138957977294922e+00,3.742073059082031250e+00
-6.901796817779541016e+00,3.008506536483764648e+00,3.689087152481079102e+00
-6.904695987701416016e+00,2.999987602233886719e+00,3.636343240737915039e+00
-6.907540798187255859e+00,2.991612911224365234e+00,3.583875656127929688e+00
-6.910367965698242188e+00,2.983395814895629883e+00,3.531697034835815430e+00
-6.913794517517089844e+00,2.975600004196166992e+00,3.480111837387084961e+00
-6.918444156646728516e+00,2.968488693237304688e+00,3.429408311843872070e+00
-6.924758434295654297e+00,2.962244033813476562e+00,3.379768371582031250e+00
-6.931779861450195312e+00,2.956449508666992188e+00,3.330687046051025391e+00
-6.939603328704833984e+00,2.951141119003295898e+00,3.282187938690185547e+00
-6.948589801788330078e+00,2.946467399597167969e+00,3.234415054321289062e+00
-6.958132743835449219e+00,2.942166090011596680e+00,3.187059164047241211e+00
-6.967648029327392578e+00,2.937987804412841797e+00,3.139839410781860352e+00
-6.977113723754882812e+00,2.933922052383422852e+00,3.092741966247558594e+00
-6.986595630645751953e+00,2.929995298385620117e+00,3.045790910720825195e+00
-6.996030330657958984e+00,2.926179647445678711e+00,2.998954057693481445e+00
-7.005438804626464844e+00,2.922482967376708984e+00,2.952236652374267578e+00
-7.014836788177490234e+00,2.918910741806030273e+00,2.905640363693237305e+00
-7.024228096008300781e+00,2.915463685989379883e+00,2.859163045883178711e+00
-7.033836364746093750e+00,2.912232875823974609e+00,2.812888860702514648e+00
-7.043979644775390625e+00,2.909348487854003906e+00,2.766933679580688477e+00
-7.055626392364501953e+00,2.907206535339355469e+00,2.721655607223510742e+00
-7.068282604217529297e+00,2.905598878860473633e+00,2.676830530166625977e+00
-7.080907344818115234e+00,2.904094934463500977e+00,2.632046937942504883e+00
-7.093565940856933594e+00,2.902720928192138672e+00,2.587325096130371094e+00
-7.106660366058349609e+00,2.901639938354492188e+00,2.542803764343261719e+00
-7.120004653930664062e+00,2.900774478912353516e+00,2.498404979705810547e+00
-7.134039878845214844e+00,2.900302648544311523e+00,2.454271078109741211e+00
-7.148185253143310547e+00,2.899986505508422852e+00,2.410188436508178711e+00
-7.162335872650146484e+00,2.899782419204711914e+00,2.366116046905517578e+00
-7.176490306854248047e+00,2.899690151214599609e+00,2.322050333023071289e+00
-7.190650463104248047e+00,2.899709224700927734e+00,2.277987480163574219e+00
-7.205240249633789062e+00,2.900010108947753906e+00,2.234055280685424805e+00
-7.220637798309326172e+00,2.900743484497070312e+00,2.190356492996215820e+00
-7.237105369567871094e+00,2.902011871337890625e+00,2.146948814392089844e+00
-7.254264354705810547e+00,2.903661727905273438e+00,2.103697538375854492e+00
-7.271642208099365234e+00,2.905502557754516602e+00,2.060451984405517578e+00
-7.288977622985839844e+00,2.907428741455078125e+00,2.017131805419921875e+00
-7.306395530700683594e+00,2.909490823745727539e+00,1.973768353462219238e+00
-7.323883056640625000e+00,2.911683082580566406e+00,1.930353283882141113e+00
-7.341550350189208984e+00,2.914049148559570312e+00,1.886910557746887207e+00
-7.359695911407470703e+00,2.916706562042236328e+00,1.843507885932922363e+00
-7.378805160522460938e+00,2.919847011566162109e+00,1.800251126289367676e+00
-7.398013591766357422e+00,2.923127174377441406e+00,1.756913185119628906e+00
-7.417177677154541016e+00,2.926490068435668945e+00,1.713455677032470703e+00
-7.437467098236083984e+00,2.930396556854248047e+00,1.670139074325561523e+00
-7.459473133087158203e+00,2.935078382492065430e+00,1.627067446708679199e+00
-7.482101440429687500e+00,2.940102338790893555e+00,1.583973050117492676e+00
-7.505338191986083984e+00,2.945462465286254883e+00,1.540838003158569336e+00
-7.528630733489990234e+00,2.950942039489746094e+00,1.497537732124328613e+00
-7.552067279815673828e+00,2.956575393676757812e+00,1.454085350036621094e+00
-7.575485706329345703e+00,2.962299585342407227e+00,1.410444736480712891e+00
-7.599136352539062500e+00,2.968212842941284180e+00,1.366658568382263184e+00
-7.622844219207763672e+00,2.974246978759765625e+00,1.322688937187194824e+00
-7.646607875823974609e+00,2.980401754379272461e+00,1.278531432151794434e+00
-7.670442104339599609e+00,2.986683607101440430e+00,1.234184503555297852e+00
-7.694513797760009766e+00,2.993157863616943359e+00,1.189669609069824219e+00
-7.720291614532470703e+00,3.000395536422729492e+00,1.145197033882141113e+00
-7.746817588806152344e+00,3.008023262023925781e+00,1.100595593452453613e+00
-7.776204109191894531e+00,3.016860723495483398e+00,1.056135058403015137e+00
-7.807387351989746094e+00,3.026493549346923828e+00,1.011621117591857910e+00
-7.840074539184570312e+00,3.036807298660278320e+00,9.669809937477111816e-01
-7.873190879821777344e+00,3.047385931015014648e+00,9.220578074455261230e-01
-7.906478881835937500e+00,3.058130264282226562e+00,8.768119812011718750e-01
-7.940074920654296875e+00,3.069094181060791016e+00,8.312517404556274414e-01
-7.973842620849609375e+00,3.080225706100463867e+00,7.853549122810363770e-01
-8.008058547973632812e+00,3.091632843017578125e+00,7.391407489776611328e-01
-8.042439460754394531e+00,3.103207349777221680e+00,6.925734877586364746e-01
-8.077007293701171875e+00,3.114958047866821289e+00,6.456485986709594727e-01
-8.112030029296875000e+00,3.126990079879760742e+00,5.983792543411254883e-01
-8.148649215698242188e+00,3.139743804931640625e+00,5.508310198783874512e-01
-8.194267272949218750e+00,3.156071424484252930e+00,5.034258961677551270e-01
-8.245012283325195312e+00,3.174479007720947266e+00,4.557802677154541016e-01
-8.296237945556640625e+00,3.193178892135620117e+00,4.075680375099182129e-01
-8.348262786865234375e+00,3.212295293807983398e+00,3.587907552719116211e-01
-8.400712966918945312e+00,3.231685876846313477e+00,3.094165921211242676e-01
-7.904950141906738281e+00,3.667283296585083008e+00,5.787866592407226562e+00
-7.040120124816894531e+00,3.251522779464721680e+00,5.088593482971191406e+00
-7.014762878417968750e+00,3.225566625595092773e+00,5.005025386810302734e+00
-6.991837978363037109e+00,3.201071262359619141e+00,4.924208164215087891e+00
-6.969073295593261719e+00,3.176979780197143555e+00,4.844477653503417969e+00
-6.950418949127197266e+00,3.155077934265136719e+00,4.768522739410400391e+00
-6.940976142883300781e+00,3.137642145156860352e+00,4.699670314788818359e+00
-6.932826995849609375e+00,3.121050357818603516e+00,4.632366657257080078e+00
-6.924846649169921875e+00,3.104787111282348633e+00,4.565824031829833984e+00
-6.916966915130615234e+00,3.088816165924072266e+00,4.499980926513671875e+00
-6.909227371215820312e+00,3.073150157928466797e+00,4.434846878051757812e+00
-6.901562690734863281e+00,3.057755708694458008e+00,4.370366096496582031e+00
-6.893996715545654297e+00,3.042638778686523438e+00,4.306540489196777344e+00
-6.886572360992431641e+00,3.027813673019409180e+00,4.243381500244140625e+00
-6.879589557647705078e+00,3.013407230377197266e+00,4.181057453155517578e+00
-6.875184535980224609e+00,3.000345468521118164e+00,4.120827198028564453e+00
-6.873921394348144531e+00,2.988858222961425781e+00,4.062948703765869141e+00
-6.874039173126220703e+00,2.978164672851562500e+00,4.006309509277343750e+00
-6.875794410705566406e+00,2.968365669250488281e+00,3.951012849807739258e+00
-6.878512859344482422e+00,2.959161520004272461e+00,3.896629333496093750e+00
-6.881420135498046875e+00,2.950213193893432617e+00,3.842694759368896484e+00
-6.884334087371826172e+00,2.941439151763916016e+00,3.789096593856811523e+00
-6.887221336364746094e+00,2.932823419570922852e+00,3.735809087753295898e+00
-6.890100479125976562e+00,2.924371480941772461e+00,3.682835340499877930e+00
-6.892975330352783203e+00,2.916082620620727539e+00,3.630170583724975586e+00
-6.895813465118408203e+00,2.907941341400146484e+00,3.577790975570678711e+00
-6.898921489715576172e+00,2.900074005126953125e+00,3.525846958160400391e+00
-6.904269218444824219e+00,2.893303394317626953e+00,3.475317001342773438e+00
-6.910816669464111328e+00,2.887184381484985352e+00,3.425627470016479492e+00
-6.917341232299804688e+00,2.881201267242431641e+00,3.376148223876953125e+00
-6.923829555511474609e+00,2.875347137451171875e+00,3.326867103576660156e+00
-6.930345535278320312e+00,2.869646549224853516e+00,3.277809381484985352e+00
-6.938045978546142578e+00,2.864575862884521484e+00,3.229507207870483398e+00
-6.946457386016845703e+00,2.859934091567993164e+00,3.181711435317993164e+00
-6.955815315246582031e+00,2.855814695358276367e+00,3.134507417678833008e+00
-6.965273380279541016e+00,2.851866006851196289e+00,3.087493419647216797e+00
-6.974736213684082031e+00,2.848047733306884766e+00,3.040620565414428711e+00
-6.984163284301757812e+00,2.844342470169067383e+00,2.993867158889770508e+00
-6.993551731109619141e+00,2.840747594833374023e+00,2.947227001190185547e+00
-7.002942085266113281e+00,2.837278604507446289e+00,2.900713443756103516e+00
-7.012327194213867188e+00,2.833931684494018555e+00,2.854318618774414062e+00
-7.023039340972900391e+00,2.831243038177490234e+00,2.808571100234985352e+00
-7.035582065582275391e+00,2.829410076141357422e+00,2.763635158538818359e+00
-7.048226356506347656e+00,2.827732801437377930e+00,2.718801021575927734e+00
-7.060874462127685547e+00,2.826171159744262695e+00,2.674025058746337891e+00
-7.073479652404785156e+00,2.824705839157104492e+00,2.629286050796508789e+00
-7.086118221282958984e+00,2.823366641998291016e+00,2.584608554840087891e+00
-7.098671436309814453e+00,2.822105407714843750e+00,2.539945363998413086e+00
-7.111282825469970703e+00,2.820978879928588867e+00,2.495344161987304688e+00
-7.124746322631835938e+00,2.820300579071044922e+00,2.451073646545410156e+00
-7.138321876525878906e+00,2.819775342941284180e+00,2.406862735748291016e+00
-7.152451992034912109e+00,2.819576740264892578e+00,2.362851142883300781e+00
-7.166587829589843750e+00,2.819487094879150391e+00,2.318846225738525391e+00
-7.180730819702148438e+00,2.819506406784057617e+00,2.274844884872436523e+00
-7.195457935333251953e+00,2.819860935211181641e+00,2.231022357940673828e+00
-7.210983753204345703e+00,2.820632219314575195e+00,2.187427997589111328e+00
-7.227207660675048828e+00,2.821779251098632812e+00,2.144012451171875000e+00
-7.244249820709228516e+00,2.823347091674804688e+00,2.100793600082397461e+00
-7.261605739593505859e+00,2.825137376785278320e+00,2.057608127593994141e+00
-7.278917312622070312e+00,2.827010631561279297e+00,2.014347553253173828e+00
-7.296316146850585938e+00,2.829017639160156250e+00,1.971045374870300293e+00
-7.314203262329101562e+00,2.831313371658325195e+00,1.927802085876464844e+00
-7.333020687103271484e+00,2.834067583084106445e+00,1.884718298912048340e+00
-7.351994037628173828e+00,2.836979866027832031e+00,1.841578722000122070e+00
-7.371088981628417969e+00,2.840036392211914062e+00,1.798368573188781738e+00
-7.390283584594726562e+00,2.843229293823242188e+00,1.755077481269836426e+00
-7.409422397613525391e+00,2.846498250961303711e+00,1.711664199829101562e+00
-7.428670883178710938e+00,2.849906921386718750e+00,1.668163895606994629e+00
-7.448341369628906250e+00,2.853574991226196289e+00,1.624639391899108887e+00
-7.469739437103271484e+00,2.858001947402954102e+00,1.581356048583984375e+00
-7.492631912231445312e+00,2.863095521926879883e+00,1.538229465484619141e+00
-7.515779018402099609e+00,2.868381261825561523e+00,1.494981408119201660e+00
-7.539179801940917969e+00,2.873858690261840820e+00,1.451604008674621582e+00
-7.562548637390136719e+00,2.879419088363647461e+00,1.408036231994628906e+00
-7.586151599884033203e+00,2.885164022445678711e+00,1.364323377609252930e+00
-7.609808444976806641e+00,2.891025304794311523e+00,1.320427060127258301e+00
-7.633538246154785156e+00,2.897010803222656250e+00,1.276346206665039062e+00
-7.658073425292968750e+00,2.903397798538208008e+00,1.232194423675537109e+00
-7.683276176452636719e+00,2.910134792327880859e+00,1.187932252883911133e+00
-7.710589885711669922e+00,2.917767047882080078e+00,1.143757939338684082e+00
-7.738403797149658203e+00,2.925684452056884766e+00,1.099400281906127930e+00
-7.766407489776611328e+00,2.933769702911376953e+00,1.054804563522338867e+00
-7.796073913574218750e+00,2.942579269409179688e+00,1.010155200958251953e+00
-7.827445507049560547e+00,2.952128887176513672e+00,9.654233455657958984e-01
-7.860637664794921875e+00,2.962460994720458984e+00,9.205875992774963379e-01
-7.894100189208984375e+00,2.972991704940795898e+00,8.754392266273498535e-01
-7.927864074707031250e+00,2.983733415603637695e+00,8.299734592437744141e-01
-7.961767196655273438e+00,2.994626045227050781e+00,7.841656208038330078e-01
-7.996109485626220703e+00,3.005782842636108398e+00,7.380378842353820801e-01
-8.030628204345703125e+00,3.017107009887695312e+00,6.915563941001892090e-01
-8.065297126770019531e+00,3.028588533401489258e+00,6.447125077247619629e-01
-8.100511550903320312e+00,3.040378093719482422e+00,5.975296497344970703e-01
-8.138323783874511719e+00,3.053245782852172852e+00,5.501331090927124023e-01
-8.180793762207031250e+00,3.067964315414428711e+00,5.025981068611145020e-01
-8.228873252868652344e+00,3.084890127182006836e+00,4.548881053924560547e-01
-8.279505729675292969e+00,3.102877616882324219e+00,4.067460298538208008e-01
-8.330975532531738281e+00,3.121284723281860352e+00,3.580477833747863770e-01
-8.382846832275390625e+00,3.139949798583984375e+00,3.087585270404815674e-01
-8.435359954833984375e+00,3.158965349197387695e+00,2.588748335838317871e-01
-8.488737106323242188e+00,3.178415775299072266e+00,2.083867937326431274e-01
-8.542585372924804688e+00,3.198156356811523438e+00,1.572677046060562134e-01
-8.597584724426269531e+00,3.218444108963012695e+00,1.055135279893875122e-01
-8.653359413146972656e+00,3.239140033721923828e+00,5.309701710939407349e-02
-8.719249725341796875e+00,3.263742685317993164e+00,1.601647294303986443e-15
-8.955725669860839844e+00,3.352322340011596680e+00,-5.495233461260795593e-02
-8.817727088928222656e+00,4.017308712005615234e+00,6.623921394348144531e+00
-7.107175827026367188e+00,3.223194837570190430e+00,5.271040916442871094e+00
-7.071463584899902344e+00,3.192530632019042969e+00,5.177602291107177734e+00
-7.047383308410644531e+00,3.167488574981689453e+00,5.093842983245849609e+00
-7.023850917816162109e+00,3.143031597137451172e+00,5.011509418487548828e+00
-7.000477313995361328e+00,3.118976354598999023e+00,4.930292129516601562e+00
-6.977224826812744141e+00,3.095299005508422852e+00,4.850144386291503906e+00
-6.957138538360595703e+00,3.073337078094482422e+00,4.773133277893066406e+00
-6.945499420166015625e+00,3.055390834808349609e+00,4.702733039855957031e+00
-6.937280654907226562e+00,3.039205789566040039e+00,4.635342597961425781e+00
-6.929386138916015625e+00,3.023408651351928711e+00,4.568817138671875000e+00
-6.921700000762939453e+00,3.007942676544189453e+00,4.503059864044189453e+00
-6.914125919342041016e+00,2.992761135101318359e+00,4.437991142272949219e+00
-6.906621456146240234e+00,2.977840662002563477e+00,4.373569965362548828e+00
-6.899182796478271484e+00,2.963175773620605469e+00,4.309779644012451172e+00
-6.891844272613525391e+00,2.948776960372924805e+00,4.246629714965820312e+00
-6.885955333709716797e+00,2.935214996337890625e+00,4.184926033020019531e+00
-6.883187294006347656e+00,2.923189401626586914e+00,4.125623703002929688e+00
-6.881981849670410156e+00,2.912022590637207031e+00,4.067713260650634766e+00
-6.881228446960449219e+00,2.901236534118652344e+00,4.010499477386474609e+00
-6.881510734558105469e+00,2.891071081161499023e+00,3.954297542572021484e+00
-6.884027004241943359e+00,2.882020950317382812e+00,3.899753093719482422e+00
-6.886947154998779297e+00,2.873310089111328125e+00,3.845781087875366211e+00
-6.889862060546875000e+00,2.864764451980590820e+00,3.792139053344726562e+00
-6.892762184143066406e+00,2.856377840042114258e+00,3.738814592361450195e+00
-6.895632743835449219e+00,2.848141431808471680e+00,3.685792446136474609e+00
-6.898519039154052734e+00,2.840072631835937500e+00,3.633090496063232422e+00
-6.901716232299804688e+00,2.832289695739746094e+00,3.580853700637817383e+00
-6.906061649322509766e+00,2.825132131576538086e+00,3.529495954513549805e+00
-6.911984920501708984e+00,2.818769216537475586e+00,3.479200839996337891e+00
-6.918539047241210938e+00,2.812807321548461914e+00,3.429455518722534180e+00
-6.925065994262695312e+00,2.806976318359375000e+00,3.379918336868286133e+00
-6.931561946868896484e+00,2.801273107528686523e+00,3.330582380294799805e+00
-6.938048839569091797e+00,2.795704841613769531e+00,3.281452655792236328e+00
-6.944731235504150391e+00,2.790352344512939453e+00,3.232619047164916992e+00
-6.952163219451904297e+00,2.785435438156127930e+00,3.184324979782104492e+00
-6.961431980133056641e+00,2.781384229660034180e+00,3.137038230895996094e+00
-6.970885276794433594e+00,2.777533769607543945e+00,3.089980840682983398e+00
-6.980354309082031250e+00,2.773814439773559570e+00,3.043070077896118164e+00
-6.989786624908447266e+00,2.770204782485961914e+00,2.996277809143066406e+00
-6.999193191528320312e+00,2.766707658767700195e+00,2.949604511260986328e+00
-7.008890151977539062e+00,2.763447046279907227e+00,2.903177261352539062e+00
-7.019313812255859375e+00,2.760592699050903320e+00,2.857162714004516602e+00
-7.030920505523681641e+00,2.758320331573486328e+00,2.811722755432128906e+00
-7.043514251708984375e+00,2.756548881530761719e+00,2.766750812530517578e+00
-7.056174755096435547e+00,2.754915475845336914e+00,2.721866846084594727e+00
-7.068837642669677734e+00,2.753394365310668945e+00,2.677040815353393555e+00
-7.081459999084472656e+00,2.751967906951904297e+00,2.632252454757690430e+00
-7.094114303588867188e+00,2.750663757324218750e+00,2.587525129318237305e+00
-7.106683254241943359e+00,2.749435663223266602e+00,2.542811870574951172e+00
-7.119300842285156250e+00,2.748335123062133789e+00,2.498157739639282227e+00
-7.132164001464843750e+00,2.747437238693237305e+00,2.453625679016113281e+00
-7.145198345184326172e+00,2.746711730957031250e+00,2.409181118011474609e+00
-7.159342765808105469e+00,2.746518611907958984e+00,2.365127325057983398e+00
-7.173490524291992188e+00,2.746430873870849609e+00,2.321079730987548828e+00
-7.187646865844726562e+00,2.746449708938598633e+00,2.277035951614379883e+00
-7.202467441558837891e+00,2.746825218200683594e+00,2.233195781707763672e+00
-7.218082427978515625e+00,2.747604608535766602e+00,2.189581394195556641e+00
-7.234215736389160156e+00,2.748681306838989258e+00,2.146091461181640625e+00
-7.251226425170898438e+00,2.750190496444702148e+00,2.102816581726074219e+00
-7.268597126007080078e+00,2.751933813095092773e+00,2.059589147567749023e+00
-7.286054611206054688e+00,2.753807306289672852e+00,2.016322851181030273e+00
-7.303830146789550781e+00,2.755897998809814453e+00,1.973075389862060547e+00
-7.322138786315917969e+00,2.758285999298095703e+00,1.929893612861633301e+00
-7.341201782226562500e+00,2.761054039001464844e+00,1.886821031570434570e+00
-7.360292911529541016e+00,2.763927221298217773e+00,1.843657374382019043e+00
-7.379413127899169922e+00,2.766906738281250000e+00,1.800399422645568848e+00
-7.398630619049072266e+00,2.770017862319946289e+00,1.757059693336486816e+00
-7.417793750762939453e+00,2.773203611373901367e+00,1.713598012924194336e+00
-7.437055587768554688e+00,2.776521444320678711e+00,1.670046687126159668e+00
-7.456612110137939453e+00,2.780044317245483398e+00,1.626443386077880859e+00
-7.477108955383300781e+00,2.784012556076049805e+00,1.582916021347045898e+00
-7.498936176300048828e+00,2.788569927215576172e+00,1.539523601531982422e+00
-7.521798610687255859e+00,2.793605089187622070e+00,1.496178746223449707e+00
-7.545214176177978516e+00,2.798938274383544922e+00,1.452765822410583496e+00
-7.568596363067626953e+00,2.804351806640625000e+00,1.409162163734436035e+00
-7.592213153839111328e+00,2.809945106506347656e+00,1.365413546562194824e+00
-7.615886211395263672e+00,2.815652608871459961e+00,1.321481585502624512e+00
-7.639630794525146484e+00,2.821480274200439453e+00,1.277364969253540039e+00
-7.665171623229980469e+00,2.828064918518066406e+00,1.233336567878723145e+00
-7.691650390625000000e+00,2.835088729858398438e+00,1.189226984977722168e+00
-7.719232082366943359e+00,2.842611789703369141e+00,1.145039916038513184e+00
-7.747070789337158203e+00,2.850322961807250977e+00,1.100631594657897949e+00
-7.775119781494140625e+00,2.858205080032348633e+00,1.055987834930419922e+00
-7.803832530975341797e+00,2.866425275802612305e+00,1.011160492897033691e+00
-7.833799839019775391e+00,2.875200748443603516e+00,9.662070870399475098e-01
-7.866879940032958984e+00,2.885212659835815430e+00,9.213186502456665039e-01
-7.900362491607666016e+00,2.895466566085815430e+00,8.761337399482727051e-01
-7.934146881103515625e+00,2.905925512313842773e+00,8.306311368942260742e-01
-7.968086242675781250e+00,2.916537523269653320e+00,7.847879528999328613e-01
-8.002449035644531250e+00,2.927401304244995117e+00,7.386230230331420898e-01
-8.036972999572753906e+00,2.938421964645385742e+00,6.921027898788452148e-01
-8.071661949157714844e+00,2.949601411819458008e+00,6.452212929725646973e-01
-8.106971740722656250e+00,2.961107969284057617e+00,5.980061292648315430e-01
-8.146900177001953125e+00,2.974401712417602539e+00,5.507127642631530762e-01
-8.188248634338378906e+00,2.988314867019653320e+00,5.030561685562133789e-01
-8.234465599060058594e+00,3.004105806350708008e+00,4.551972448825836182e-01
-8.284832000732421875e+00,3.021512508392333984e+00,4.070076942443847656e-01
-8.335978507995605469e+00,3.039307117462158203e+00,3.582628071308135986e-01
-8.387570381164550781e+00,3.057368516921997070e+00,3.089325129985809326e-01
-8.439798355102539062e+00,3.075769186019897461e+00,2.590110301971435547e-01
-8.492877006530761719e+00,3.094588756561279297e+00,2.084884345531463623e-01
-8.546480178833007812e+00,3.113709688186645508e+00,1.573394089937210083e-01
-8.601473808288574219e+00,3.133450508117675781e+00,1.055612713098526001e-01
-8.657266616821289062e+00,3.153597116470336914e+00,5.312098935246467590e-02
-8.729634284973144531e+00,3.179898977279663086e+00,1.603554918380321534e-15
-8.807180404663085938e+00,3.208206653594970703e+00,-5.404086410999298096e-02
-1.178259181976318359e+01,4.292306900024414062e+00,-1.446014195680618286e-01
-1.186273288726806641e+01,4.321908950805664062e+00,-2.183911204338073730e-01
-1.212406063079833984e+01,4.417699813842773438e+00,-2.976289987564086914e-01
-1.286512756347656250e+01,4.688519954681396484e+00,-3.948210477828979492e-01
-7.316371917724609375e+00,3.303829669952392578e+00,5.782335281372070312e+00
-7.255165576934814453e+00,3.260441064834594727e+00,5.661986827850341797e+00
-7.208296298980712891e+00,3.224000930786132812e+00,5.554581165313720703e+00
-7.160984992980957031e+00,3.187827587127685547e+00,5.448421955108642578e+00
-7.120500087738037109e+00,3.155134916305541992e+00,5.348956108093261719e+00
-7.092902660369873047e+00,3.128544807434082031e+00,5.260455131530761719e+00
-7.067230224609375000e+00,3.103157997131347656e+00,5.174502849578857422e+00
-7.041672706604003906e+00,3.078165054321289062e+00,5.089715957641601562e+00
-7.016553401947021484e+00,3.053698778152465820e+00,5.006302833557128906e+00
-6.991807460784912109e+00,3.029721975326538086e+00,4.924186229705810547e+00
-6.967867851257324219e+00,3.006412982940673828e+00,4.843639850616455078e+00
-6.950333118438720703e+00,2.986166954040527344e+00,4.768464088439941406e+00
-6.936740398406982422e+00,2.967888832092285156e+00,4.696802139282226562e+00
-6.925286769866943359e+00,2.950784683227539062e+00,4.627328872680664062e+00
-6.917572498321533203e+00,2.935517787933349609e+00,4.561028003692626953e+00
-6.909930229187011719e+00,2.920514345169067383e+00,4.495402812957763672e+00
-6.902387142181396484e+00,2.905781507492065430e+00,4.430456161499023438e+00
-6.894897460937500000e+00,2.891295671463012695e+00,4.366145610809326172e+00
-6.887513160705566406e+00,2.877074480056762695e+00,4.302490234375000000e+00
-6.881329536437988281e+00,2.863569259643554688e+00,4.240150928497314453e+00
-6.878203392028808594e+00,2.851541042327880859e+00,4.180214881896972656e+00
-6.877047538757324219e+00,2.840522766113281250e+00,4.121943950653076172e+00
-6.875899791717529297e+00,2.829694986343383789e+00,4.064118385314941406e+00
-6.874752998352050781e+00,2.819052457809448242e+00,4.006725311279296875e+00
-6.873911857604980469e+00,2.808716058731079102e+00,3.949931383132934570e+00
-6.873341560363769531e+00,2.798667907714843750e+00,3.893699884414672852e+00
-6.875794410705566406e+00,2.790021419525146484e+00,3.839553356170654297e+00
-6.878714561462402344e+00,2.781727552413940430e+00,3.786003828048706055e+00
-6.881621360778808594e+00,2.773588418960571289e+00,3.732771635055541992e+00
-6.884500980377197266e+00,2.765596151351928711e+00,3.679842472076416016e+00
-6.887782096862792969e+00,2.757921218872070312e+00,3.627435684204101562e+00
-6.892312526702880859e+00,2.750897645950317383e+00,3.575974464416503906e+00
-6.898534297943115234e+00,2.744694709777832031e+00,3.525649070739746094e+00
-6.905110359191894531e+00,2.738774299621582031e+00,3.475740432739257812e+00
-6.911660194396972656e+00,2.732982635498046875e+00,3.426045656204223633e+00
-6.918173789978027344e+00,2.727314472198486328e+00,3.376554489135742188e+00
-6.924656867980957031e+00,2.721770524978637695e+00,3.327264547348022461e+00
-6.931130886077880859e+00,2.716357707977294922e+00,3.278180837631225586e+00
-6.937558174133300781e+00,2.711059808731079102e+00,3.229279994964599609e+00
-6.944195270538330078e+00,2.705975770950317383e+00,3.180675268173217773e+00
-6.950996398925781250e+00,2.701085805892944336e+00,3.132335662841796875e+00
-6.959630966186523438e+00,2.697034358978271484e+00,3.084992170333862305e+00
-6.969094276428222656e+00,2.693426847457885742e+00,3.038161277770996094e+00
-6.978528022766113281e+00,2.689928054809570312e+00,2.991451501846313477e+00
-6.988118648529052734e+00,2.686609029769897461e+00,2.944937467575073242e+00
-6.998929500579833984e+00,2.683875799179077148e+00,2.899051666259765625e+00
-7.011330127716064453e+00,2.681865215301513672e+00,2.853912830352783203e+00
-7.024017810821533203e+00,2.680075168609619141e+00,2.808962106704711914e+00
-7.036664485931396484e+00,2.678379058837890625e+00,2.764060258865356445e+00
-7.049316883087158203e+00,2.676793575286865234e+00,2.719221591949462891e+00
-7.061961174011230469e+00,2.675312995910644531e+00,2.674436569213867188e+00
-7.074564456939697266e+00,2.673924446105957031e+00,2.629689216613769531e+00
-7.087209701538085938e+00,2.672658681869506836e+00,2.585006713867187500e+00
-7.099760532379150391e+00,2.671463251113891602e+00,2.540334939956665039e+00
-7.112355709075927734e+00,2.670389890670776367e+00,2.495720863342285156e+00
-7.124916076660156250e+00,2.669408559799194336e+00,2.451132059097290039e+00
-7.137577533721923828e+00,2.668569564819335938e+00,2.406611680984497070e+00
-7.150696277618408203e+00,2.668004751205444336e+00,2.362270832061767578e+00
-7.164165973663330078e+00,2.667673349380493164e+00,2.318062543869018555e+00
-7.178377151489257812e+00,2.667718887329101562e+00,2.274099349975585938e+00
-7.193353176116943359e+00,2.668148279190063477e+00,2.230369806289672852e+00
-7.209005355834960938e+00,2.668926477432250977e+00,2.186827898025512695e+00
-7.224899768829345703e+00,2.669891834259033203e+00,2.143327951431274414e+00
-7.241796493530273438e+00,2.671323537826538086e+00,2.100082159042358398e+00
-7.259145259857177734e+00,2.673017263412475586e+00,2.056910991668701172e+00
-7.277095794677734375e+00,2.675026416778564453e+00,2.013843536376953125e+00
-7.295994758605957031e+00,2.677477598190307617e+00,1.970958709716796875e+00
-7.315027713775634766e+00,2.680070400238037109e+00,1.928019404411315918e+00
-7.334076881408691406e+00,2.682761430740356445e+00,1.884989738464355469e+00
-7.353144168853759766e+00,2.685551643371582031e+00,1.841866731643676758e+00
-7.372251033782958984e+00,2.688448429107666016e+00,1.798652172088623047e+00
-7.391455650329589844e+00,2.691473245620727539e+00,1.755355715751647949e+00
-7.410605907440185547e+00,2.694570779800415039e+00,1.711937546730041504e+00
-7.429854393005371094e+00,2.697796583175659180e+00,1.668429613113403320e+00
-7.449192047119140625e+00,2.701147079467773438e+00,1.624825000762939453e+00
-7.468494892120361328e+00,2.704577684402465820e+00,1.581092476844787598e+00
-7.488689422607421875e+00,2.708423614501953125e+00,1.537420034408569336e+00
-7.510251045227050781e+00,2.712855339050292969e+00,1.493881821632385254e+00
-7.533032894134521484e+00,2.717818737030029297e+00,1.450420498847961426e+00
-7.556303024291992188e+00,2.723048448562622070e+00,1.406873226165771484e+00
-7.579871654510498047e+00,2.728476285934448242e+00,1.363193988800048828e+00
-7.604362487792968750e+00,2.734326124191284180e+00,1.319482088088989258e+00
-7.629528522491455078e+00,2.740509033203125000e+00,1.275675773620605469e+00
-7.656350612640380859e+00,2.747376441955566406e+00,1.231917262077331543e+00
-7.683869838714599609e+00,2.754583835601806641e+00,1.188024044036865234e+00
-7.711594581604003906e+00,2.761954545974731445e+00,1.143906950950622559e+00
-7.739423751831054688e+00,2.769453287124633789e+00,1.099545240402221680e+00
-7.767442226409912109e+00,2.777110576629638672e+00,1.054945111274719238e+00
-7.795554637908935547e+00,2.784893512725830078e+00,1.010087966918945312e+00
-7.824265956878662109e+00,2.792982339859008789e+00,9.650311470031738281e-01
-7.854754447937011719e+00,2.801797866821289062e+00,9.198985695838928223e-01
-7.887462615966796875e+00,2.811497688293457031e+00,8.747031092643737793e-01
-7.921144962310791016e+00,2.821636676788330078e+00,8.292700052261352539e-01
-7.955015182495117188e+00,2.831936120986938477e+00,7.835006117820739746e-01
-7.989308834075927734e+00,2.842480182647705078e+00,7.374101877212524414e-01
-8.023777961730957031e+00,2.853181600570678711e+00,6.909664869308471680e-01
-8.060418128967285156e+00,2.864750862121582031e+00,6.443225741386413574e-01
-8.098932266235351562e+00,2.877082109451293945e+00,5.974131226539611816e-01
-8.139536857604980469e+00,2.890252828598022461e+00,5.502150654792785645e-01
-8.180567741394042969e+00,2.903672456741333008e+00,5.025842189788818359e-01
-8.223464012145996094e+00,2.917853355407714844e+00,4.545890688896179199e-01
-8.270255088806152344e+00,2.933516263961791992e+00,4.062915742397308350e-01
-8.321256637573242188e+00,2.950772762298583984e+00,3.576301038265228271e-01
-8.372685432434082031e+00,2.968283176422119141e+00,3.083842694759368896e-01
-8.424751281738281250e+00,2.986122608184814453e+00,2.585492432117462158e-01
-8.477670669555664062e+00,3.004370689392089844e+00,2.081151455640792847e-01
-8.531061172485351562e+00,3.022892951965332031e+00,1.570555418729782104e-01
-8.586029052734375000e+00,3.042083740234375000e+00,1.053717136383056641e-01
-8.647379875183105469e+00,3.063647747039794922e+00,5.306032299995422363e-02
-8.720001220703125000e+00,3.089318513870239258e+00,1.601785360674388894e-15
-8.800187110900878906e+00,3.117785453796386719e+00,-5.399795249104499817e-02
-8.881879806518554688e+00,3.146905899047851562e+00,-1.090025380253791809e-01
-8.966751098632812500e+00,3.177275419235229492e+00,-1.650765389204025269e-01
-9.057977676391601562e+00,3.210023403167724609e+00,-2.223608642816543579e-01
-9.315361976623535156e+00,3.301796436309814453e+00,-2.858814299106597900e-01
-7.320227622985839844e+00,3.212986230850219727e+00,5.785382270812988281e+00
-7.261317253112792969e+00,3.171807765960693359e+00,5.666787624359130859e+00
-7.211644172668457031e+00,3.135156393051147461e+00,5.557160854339599609e+00
-7.163883209228515625e+00,3.099795103073120117e+00,5.450627326965332031e+00
-7.124944686889648438e+00,3.068678379058837891e+00,5.352294921875000000e+00
-7.097765922546386719e+00,3.043003559112548828e+00,5.264061927795410156e+00
-7.071956157684326172e+00,3.018260002136230469e+00,5.177962779998779297e+00
-7.046402931213378906e+00,2.993959665298461914e+00,5.093134880065917969e+00
-7.021275043487548828e+00,2.970166444778442383e+00,5.009671688079833984e+00
-6.996533870697021484e+00,2.946854591369628906e+00,4.927515029907226562e+00
-6.972951889038085938e+00,2.924339771270751953e+00,4.847173690795898438e+00
-6.958342552185058594e+00,2.905873298645019531e+00,4.773959159851074219e+00
-6.944195747375488281e+00,2.887862682342529297e+00,4.701849937438964844e+00
-6.931607723236083984e+00,2.870755195617675781e+00,4.631552219390869141e+00
-6.922679424285888672e+00,2.855404615402221680e+00,4.564395427703857422e+00
-6.914861679077148438e+00,2.840740680694580078e+00,4.498610973358154297e+00
-6.907327651977539062e+00,2.826416254043579102e+00,4.433627605438232422e+00
-6.899834156036376953e+00,2.812326669692993164e+00,4.369271755218505859e+00
-6.892478466033935547e+00,2.798507690429687500e+00,4.305592060089111328e+00
-6.887705802917480469e+00,2.785943984985351562e+00,4.244080066680908203e+00
-6.885921955108642578e+00,2.774783611297607422e+00,4.184906005859375000e+00
-6.884764194488525391e+00,2.764061689376831055e+00,4.126568794250488281e+00
-6.883603096008300781e+00,2.753520727157592773e+00,4.068671703338623047e+00
-6.882456302642822266e+00,2.743165016174316406e+00,4.011215209960937500e+00
-6.881320476531982422e+00,2.732990264892578125e+00,3.954188346862792969e+00
-6.880205154418945312e+00,2.722997665405273438e+00,3.897588014602661133e+00
-6.881693363189697266e+00,2.714203357696533203e+00,3.842847347259521484e+00
-6.883924961090087891e+00,2.705863237380981445e+00,3.788871288299560547e+00
-6.886821746826171875e+00,2.697941064834594727e+00,3.735592126846313477e+00
-6.889727592468261719e+00,2.690176486968994141e+00,3.682636022567749023e+00
-6.893805503845214844e+00,2.683019876480102539e+00,3.630607843399047852e+00
-6.899443626403808594e+00,2.676615476608276367e+00,3.579674482345581055e+00
-6.905896663665771484e+00,2.670666933059692383e+00,3.529411792755126953e+00
-6.912472724914550781e+00,2.664903163909912109e+00,3.479446172714233398e+00
-6.919029235839843750e+00,2.659267902374267578e+00,3.429698467254638672e+00
-6.925549983978271484e+00,2.653752565383911133e+00,3.380154609680175781e+00
-6.932041645050048828e+00,2.648358821868896484e+00,3.330812931060791016e+00
-6.938514709472656250e+00,2.643089056015014648e+00,3.281673192977905273e+00
-6.944950103759765625e+00,2.637934684753417969e+00,3.232720851898193359e+00
-6.951366424560546875e+00,2.632901430130004883e+00,3.183959960937500000e+00
-6.957748413085937500e+00,2.627982378005981445e+00,3.135378360748291016e+00
-6.965781688690185547e+00,2.623811006546020508e+00,3.087718486785888672e+00
-6.974378108978271484e+00,2.619972467422485352e+00,3.040464639663696289e+00
-6.984004020690917969e+00,2.616638660430908203e+00,2.993798971176147461e+00
-6.994670867919921875e+00,2.613809347152709961e+00,2.947698831558227539e+00
-7.006320476531982422e+00,2.611459016799926758e+00,2.902112960815429688e+00
-7.018887519836425781e+00,2.609560012817382812e+00,2.856989145278930664e+00
-7.031589508056640625e+00,2.607818365097045898e+00,2.811990261077880859e+00
-7.044243812561035156e+00,2.606165409088134766e+00,2.767037391662597656e+00
-7.056910514831542969e+00,2.604623079299926758e+00,2.722150802612304688e+00
-7.069571495056152344e+00,2.603183507919311523e+00,2.677318811416625977e+00
-7.082178592681884766e+00,2.601829051971435547e+00,2.632519721984863281e+00
-7.094840526580810547e+00,2.600598335266113281e+00,2.587790012359619141e+00
-7.107406616210937500e+00,2.599435567855834961e+00,2.543070793151855469e+00
-7.120016098022460938e+00,2.598391771316528320e+00,2.498408794403076172e+00
-7.132582664489746094e+00,2.597434282302856445e+00,2.453769683837890625e+00
-7.145116806030273438e+00,2.596566438674926758e+00,2.409153699874877930e+00
-7.157712459564208984e+00,2.595822095870971680e+00,2.364588737487792969e+00
-7.170901298522949219e+00,2.595393180847167969e+00,2.320241928100585938e+00
-7.185049057006835938e+00,2.595409870147705078e+00,2.276212930679321289e+00
-7.200067520141601562e+00,2.595837831497192383e+00,2.232451677322387695e+00
-7.215748786926269531e+00,2.596600294113159180e+00,2.188873529434204102e+00
-7.231590270996093750e+00,2.597515106201171875e+00,2.145312786102294922e+00
-7.248659133911132812e+00,2.598964214324951172e+00,2.102072238922119141e+00
-7.266509056091308594e+00,2.600785255432128906e+00,2.058997392654418945e+00
-7.284880161285400391e+00,2.602884054183959961e+00,2.015997886657714844e+00
-7.303864955902099609e+00,2.605292558670043945e+00,1.973084688186645508e+00
-7.322910785675048828e+00,2.607812643051147461e+00,1.930097103118896484e+00
-7.341983318328857422e+00,2.610432147979736328e+00,1.887021780014038086e+00
-7.361083984375000000e+00,2.613151550292968750e+00,1.843855500221252441e+00
-7.380204677581787109e+00,2.615967988967895508e+00,1.800592541694641113e+00
-7.399421215057373047e+00,2.618908166885375977e+00,1.757247447967529297e+00
-7.418594837188720703e+00,2.621923208236694336e+00,1.713783144950866699e+00
-7.437866687774658203e+00,2.625062704086303711e+00,1.670228719711303711e+00
-7.457238674163818359e+00,2.628327846527099609e+00,1.626579999923706055e+00
-7.476554870605468750e+00,2.631663322448730469e+00,1.582798719406127930e+00
-7.496331214904785156e+00,2.635250806808471680e+00,1.538988828659057617e+00
-7.516700267791748047e+00,2.639136552810668945e+00,1.495164632797241211e+00
-7.538781166076660156e+00,2.643712282180786133e+00,1.451527237892150879e+00
-7.561989784240722656e+00,2.648771762847900391e+00,1.407932043075561523e+00
-7.585586547851562500e+00,2.654055118560791016e+00,1.364221811294555664e+00
-7.610874176025390625e+00,2.660017490386962891e+00,1.320611953735351562e+00
-7.637318611145019531e+00,2.666471004486083984e+00,1.276978254318237305e+00
-7.664525508880615234e+00,2.673277616500854492e+00,1.233232617378234863e+00
-7.692080497741699219e+00,2.680292844772338867e+00,1.189293384552001953e+00
-7.719850540161132812e+00,2.687470197677612305e+00,1.145131587982177734e+00
-7.747703075408935547e+00,2.694764375686645508e+00,1.100721359252929688e+00
-7.775753974914550781e+00,2.702216148376464844e+00,1.056074023246765137e+00
-7.803900718688964844e+00,2.709790468215942383e+00,1.011169314384460449e+00
-7.832312583923339844e+00,2.717546701431274414e+00,9.660236239433288574e-01
-7.861114501953125000e+00,2.725528717041015625e+00,9.206434488296508789e-01
-7.893386363983154297e+00,2.734803915023803711e+00,8.753600716590881348e-01
-7.927048683166503906e+00,2.744650840759277344e+00,8.298880457878112793e-01
-7.960954666137695312e+00,2.754672765731811523e+00,7.840856313705444336e-01
-7.995266437530517578e+00,2.764926433563232422e+00,7.379600405693054199e-01
-8.029739379882812500e+00,2.775328397750854492e+00,6.914798021316528320e-01
-8.067652702331542969e+00,2.787012338638305664e+00,6.449008584022521973e-01
-8.108046531677246094e+00,2.799646139144897461e+00,5.980854630470275879e-01
-8.148722648620605469e+00,2.812471389770507812e+00,5.508360266685485840e-01
-8.189809799194335938e+00,2.825533151626586914e+00,5.031520128250122070e-01
-8.231307983398437500e+00,2.838833808898925781e+00,4.550227224826812744e-01
-8.276297569274902344e+00,2.853435993194580078e+00,4.065884351730346680e-01
-8.327037811279296875e+00,2.870118379592895508e+00,3.578785359859466553e-01
-8.378489494323730469e+00,2.887145519256591797e+00,3.085980415344238281e-01
-8.430577278137207031e+00,2.904492616653442383e+00,2.587280571460723877e-01
-8.483542442321777344e+00,2.922245025634765625e+00,2.082592844963073730e-01
-8.537151336669921875e+00,2.940323591232299805e+00,1.571676731109619141e-01
-8.592713356018066406e+00,2.959181547164916992e+00,1.054537519812583923e-01
-8.656653404235839844e+00,2.981032848358154297e+00,5.311722680926322937e-02
-8.728537559509277344e+00,3.005730628967285156e+00,1.603353324538875010e-15
-8.809553146362304688e+00,3.033685922622680664e+00,-5.405542254447937012e-02
-8.892422676086425781e+00,3.062396049499511719e+00,-1.091319173574447632e-01
-8.976866722106933594e+00,3.091768026351928711e+00,-1.652627587318420410e-01
-9.060168266296386719e+00,3.120869636535644531e+00,-2.224146425724029541e-01
-9.151949882507324219e+00,3.153019189834594727e+00,-2.808664143085479736e-01
-9.265049934387207031e+00,3.192645788192749023e+00,-3.412519991397857666e-01
-9.383226394653320312e+00,3.234159946441650391e+00,-4.032713174819946289e-01
-9.515674591064453125e+00,3.280738115310668945e+00,-4.674751162528991699e-01
-1.051556110382080078e+01,3.626632690429687500e+00,-5.812951326370239258e-01
-7.498900413513183594e+00,3.228697538375854492e+00,6.077570438385009766e+00
-7.392876148223876953e+00,3.167356967926025391e+00,5.916854858398437500e+00
-7.310346126556396484e+00,3.116751194000244141e+00,5.777572631835937500e+00
-7.252593517303466797e+00,3.077263593673706055e+00,5.659979820251464844e+00
-7.202984333038330078e+00,3.041706562042236328e+00,5.550487995147705078e+00
-7.156305313110351562e+00,3.007829904556274414e+00,5.444861888885498047e+00
-7.117328166961669922e+00,2.977602720260620117e+00,5.346573352813720703e+00
-7.086500644683837891e+00,2.951158523559570312e+00,5.255707263946533203e+00
-7.059883117675781250e+00,2.926809549331665039e+00,5.169123172760009766e+00
-7.034402847290039062e+00,2.903257846832275391e+00,5.084461212158203125e+00
-7.009346961975097656e+00,2.880197286605834961e+00,5.001160621643066406e+00
-6.985499382019042969e+00,2.857939958572387695e+00,4.919743537902832031e+00
-6.967620849609375000e+00,2.838413000106811523e+00,4.843468189239501953e+00
-6.953326702117919922e+00,2.820612192153930664e+00,4.770517826080322266e+00
-6.939168453216552734e+00,2.803121566772460938e+00,4.698446273803710938e+00
-6.925227165222167969e+00,2.785968065261840820e+00,4.627288818359375000e+00
-6.913006782531738281e+00,2.769748210906982422e+00,4.558017253875732422e+00
-6.903687477111816406e+00,2.754920959472656250e+00,4.491341590881347656e+00
-6.896166801452636719e+00,2.741029739379882812e+00,4.426463603973388672e+00
-6.888717174530029297e+00,2.727378368377685547e+00,4.362232208251953125e+00
-6.883700370788574219e+00,2.714894533157348633e+00,4.300108432769775391e+00
-6.881532669067382812e+00,2.703727006912231445e+00,4.240275859832763672e+00
-6.880355358123779297e+00,2.693133115768432617e+00,4.181522846221923828e+00
-6.879186630249023438e+00,2.682722091674804688e+00,4.123225688934326172e+00
-6.878025054931640625e+00,2.672490596771240234e+00,4.065374374389648438e+00
-6.876866817474365234e+00,2.662434816360473633e+00,4.007957458496093750e+00
-6.875720977783203125e+00,2.652555227279663086e+00,3.950970888137817383e+00
-6.874579429626464844e+00,2.642846345901489258e+00,3.894401311874389648e+00
-6.873565673828125000e+00,2.633352994918823242e+00,3.838308811187744141e+00
-6.874230384826660156e+00,2.624663829803466797e+00,3.783535718917846680e+00
-6.876551151275634766e+00,2.616761922836303711e+00,3.730021238327026367e+00
-6.880591392517089844e+00,2.609663009643554688e+00,3.677752733230590820e+00
-6.886336326599121094e+00,2.603352785110473633e+00,3.626674175262451172e+00
-6.892953395843505859e+00,2.597509384155273438e+00,3.576307058334350586e+00
-6.899551391601562500e+00,2.591793537139892578e+00,3.526169061660766602e+00
-6.906122207641601562e+00,2.586200475692749023e+00,3.476249694824218750e+00
-6.912667274475097656e+00,2.580729484558105469e+00,3.426544904708862305e+00
-6.919175148010253906e+00,2.575374364852905273e+00,3.377043247222900391e+00
-6.925661563873291016e+00,2.570140123367309570e+00,3.327747344970703125e+00
-6.932130813598632812e+00,2.565026998519897461e+00,3.278653621673583984e+00
-6.938544273376464844e+00,2.560019016265869141e+00,3.229739189147949219e+00
-6.944885730743408203e+00,2.555109024047851562e+00,3.180991649627685547e+00
-6.951099872589111328e+00,2.550276041030883789e+00,3.132382392883300781e+00
-6.957292079925537109e+00,2.545557260513305664e+00,3.083955526351928711e+00
-6.964421749114990234e+00,2.541301488876342773e+00,3.036124229431152344e+00
-6.974405765533447266e+00,2.538203239440917969e+00,2.989684581756591797e+00
-6.986306190490722656e+00,2.535911798477172852e+00,2.944173812866210938e+00
-6.998947620391845703e+00,2.533995628356933594e+00,2.899059057235717773e+00
-7.011607646942138672e+00,2.532191038131713867e+00,2.854025840759277344e+00
-7.024244308471679688e+00,2.530482530593872070e+00,2.809052944183349609e+00
-7.036856651306152344e+00,2.528868436813354492e+00,2.764135837554931641e+00
-7.049489498138427734e+00,2.527364253997802734e+00,2.719288110733032227e+00
-7.062139511108398438e+00,2.525968313217163086e+00,2.674504041671752930e+00
