2.359429597854614258e+00,2.168501168489456177e-01,6.594163894653320312e+00
2.360066652297973633e+00,2.206974774599075317e-01,6.725765705108642578e+00
2.360911369323730469e+00,2.247100174427032471e-01,6.862663745880126953e+00
2.361808300018310547e+00,2.288819700479507446e-01,7.004699230194091797e+00
2.362801074981689453e+00,2.332268208265304565e-01,7.152301311492919922e+00
2.363788366317749023e+00,2.377444952726364136e-01,7.305485248565673828e+00
2.364631175994873047e+00,2.424311637878417969e-01,7.464148044586181641e+00
2.365707397460937500e+00,2.473366707563400269e-01,7.629841804504394531e+00
2.366809368133544922e+00,2.524525225162506104e-01,7.802324771881103516e+00
-8.004441261291503906e+00,3.239031434059143066e-01,6.735143661499023438e+00
-7.720493316650390625e+00,3.108142316341400146e-01,6.415725231170654297e+00
-7.562298774719238281e+00,3.029067814350128174e-01,6.206218242645263672e+00
-7.449858188629150391e+00,2.969134747982025146e-01,6.037823677062988281e+00
-7.360818862915039062e+00,2.919186055660247803e-01,5.891197681427001953e+00
-7.286097526550292969e+00,2.875486016273498535e-01,5.758408546447753906e+00
-7.232462882995605469e+00,2.840597331523895264e-01,5.644269466400146484e+00
-7.187454700469970703e+00,2.809519469738006592e-01,5.538520812988281250e+00
-7.147985458374023438e+00,2.780994474887847900e-01,5.438531398773193359e+00
-7.109555244445800781e+00,2.753241360187530518e-01,5.340734481811523438e+00
-7.072595119476318359e+00,2.726412415504455566e-01,5.245393753051757812e+00
-7.041635513305664062e+00,2.702231705188751221e-01,5.155762672424316406e+00
-7.016901493072509766e+00,2.680747210979461670e-01,5.071811199188232422e+00
-6.992713928222656250e+00,2.659760415554046631e-01,4.989293098449707031e+00
-6.975656986236572266e+00,2.641756832599639893e-01,4.912812232971191406e+00
-6.960628032684326172e+00,2.624772191047668457e-01,4.838607311248779297e+00
-6.946065425872802734e+00,2.608205080032348633e-01,4.765536308288574219e+00
-6.931636810302734375e+00,2.591924667358398438e-01,4.693346500396728516e+00
-6.917535305023193359e+00,2.575998306274414062e-01,4.622149467468261719e+00
-6.904417514801025391e+00,2.560663223266601562e-01,4.552354335784912109e+00
-6.895786285400390625e+00,2.547204792499542236e-01,4.486201286315917969e+00
-6.888731956481933594e+00,2.534529268741607666e-01,4.421691417694091797e+00
-6.881717681884765625e+00,2.522063255310058594e-01,4.357799530029296875e+00
-6.877514839172363281e+00,2.510814368724822998e-01,4.296244621276855469e+00
-6.875724792480468750e+00,2.500623166561126709e-01,4.236697196960449219e+00
-6.874410152435302734e+00,2.490774691104888916e-01,4.177909851074218750e+00
-6.873125553131103516e+00,2.481103837490081787e-01,4.119593143463134766e+00
-6.871848583221435547e+00,2.471599578857421875e-01,4.061723709106445312e+00
-6.870585441589355469e+00,2.462261617183685303e-01,4.004296302795410156e+00
-6.869332790374755859e+00,2.453086525201797485e-01,3.947300195693969727e+00
-6.868380069732666016e+00,2.444174438714981079e-01,3.890889406204223633e+00
-6.868824005126953125e+00,2.435911148786544800e-01,3.835660934448242188e+00
-6.871996879577636719e+00,2.428760379552841187e-01,3.782306432723999023e+00
-6.875144481658935547e+00,2.421739697456359863e-01,3.729258298873901367e+00
-6.878280639648437500e+00,2.414852529764175415e-01,3.676517486572265625e+00
-6.882441043853759766e+00,2.408459484577178955e-01,3.624622821807861328e+00
-6.888813018798828125e+00,2.402969598770141602e-01,3.574158906936645508e+00
-6.895344734191894531e+00,2.397660017013549805e-01,3.524019002914428711e+00
-6.901913166046142578e+00,2.392486482858657837e-01,3.474131107330322266e+00
-6.908443450927734375e+00,2.387421578168869019e-01,3.424451351165771484e+00
-6.914953708648681641e+00,2.382469922304153442e-01,3.374983072280883789e+00
-6.921426296234130859e+00,2.377624362707138062e-01,3.325712442398071289e+00
-6.927897453308105469e+00,2.372896075248718262e-01,3.276651620864868164e+00
-6.934322834014892578e+00,2.368268519639968872e-01,3.227774143218994141e+00
-6.940771579742431641e+00,2.363764345645904541e-01,3.179107189178466797e+00
-6.948231220245361328e+00,2.359717339277267456e-01,3.131089687347412109e+00
-6.957461357116699219e+00,2.356380969285964966e-01,3.084030389785766602e+00
-6.967059135437011719e+00,2.353275269269943237e-01,3.037273883819580078e+00
-6.976634025573730469e+00,2.350266873836517334e-01,2.990639686584472656e+00
-6.986189365386962891e+00,2.347355931997299194e-01,2.944124460220336914e+00
-6.997169494628906250e+00,2.345025539398193359e-01,2.898322343826293945e+00
-7.009812355041503906e+00,2.343351095914840698e-01,2.853295087814331055e+00
-7.022536754608154297e+00,2.341800183057785034e-01,2.808370113372802734e+00
-7.035233020782470703e+00,2.340335398912429810e-01,2.763498067855834961e+00
-7.047921180725097656e+00,2.338962703943252563e-01,2.718683242797851562e+00
-7.060611248016357422e+00,2.337685078382492065e-01,2.673925399780273438e+00
-7.073260784149169922e+00,2.336487770080566406e-01,2.629204750061035156e+00
-7.085952758789062500e+00,2.335397750139236450e-01,2.584548234939575195e+00
-7.098556518554687500e+00,2.334371358156204224e-01,2.539904117584228516e+00
-7.111206531524658203e+00,2.333452254533767700e-01,2.495317697525024414e+00
-7.123811244964599609e+00,2.332609891891479492e-01,2.450752019882202148e+00
-7.136537075042724609e+00,2.331898361444473267e-01,2.406260728836059570e+00
-7.150486469268798828e+00,2.331676483154296875e-01,2.362201690673828125e+00
-7.164856910705566406e+00,2.331679910421371460e-01,2.318286180496215820e+00
-7.179315090179443359e+00,2.331799715757369995e-01,2.274396419525146484e+00
-7.194216728210449219e+00,2.332150191068649292e-01,2.230637550354003906e+00
-7.209876537322998047e+00,2.332832366228103638e-01,2.187092304229736328e+00
-7.226570129394531250e+00,2.333933562040328979e-01,2.143823623657226562e+00
-7.243654251098632812e+00,2.335244268178939819e-01,2.100620746612548828e+00
-7.260959625244140625e+00,2.336709350347518921e-01,2.057425022125244141e+00
-7.278435230255126953e+00,2.338311821222305298e-01,2.014214277267456055e+00
-7.297464847564697266e+00,2.340495288372039795e-01,1.971355795860290527e+00
-7.316610336303710938e+00,2.342796474695205688e-01,1.928436517715454102e+00
-7.335796833038330078e+00,2.345191389322280884e-01,1.885431766510009766e+00
-7.355009078979492188e+00,2.347675412893295288e-01,1.842333912849426270e+00
-7.374252319335937500e+00,2.350249588489532471e-01,1.799140334129333496e+00
-7.393582820892333984e+00,2.352932542562484741e-01,1.755860924720764160e+00
-7.412881374359130859e+00,2.355685681104660034e-01,1.712463259696960449e+00
-7.432279109954833984e+00,2.358551323413848877e-01,1.668974161148071289e+00
-7.451767921447753906e+00,2.361526340246200562e-01,1.625386714935302734e+00
-7.471222400665283203e+00,2.364571392536163330e-01,1.581669926643371582e+00
-7.491514682769775391e+00,2.367962449789047241e-01,1.537999987602233887e+00
-7.513540744781494141e+00,2.371981292963027954e-01,1.494536161422729492e+00
-7.536595344543457031e+00,2.376403808593750000e-01,1.451106429100036621e+00
-7.559854507446289062e+00,2.380969673395156860e-01,1.407534599304199219e+00
-7.583685398101806641e+00,2.385794520378112793e-01,1.363879919052124023e+00
-7.608089447021484375e+00,2.390878498554229736e-01,1.320128679275512695e+00
-7.634867668151855469e+00,2.396787256002426147e-01,1.276568531990051270e+00
-7.662438392639160156e+00,2.403022199869155884e-01,1.232896804809570312e+00
-7.690217971801757812e+00,2.409400790929794312e-01,1.189005494117736816e+00
-7.718187332153320312e+00,2.415917366743087769e-01,1.144884943962097168e+00
-7.746251106262207031e+00,2.422542423009872437e-01,1.100515127182006836e+00
-7.774529457092285156e+00,2.429314106702804565e-01,1.055907607078552246e+00
-7.802893638610839844e+00,2.436192780733108521e-01,1.011038899421691895e+00
-7.831473827362060547e+00,2.443219572305679321e-01,9.659201502799987793e-01
-7.860253810882568359e+00,2.450389862060546875e-01,9.205426573753356934e-01
-7.892578125000000000e+00,2.458746284246444702e-01,8.752704262733459473e-01
-7.925769805908203125e+00,2.467453777790069580e-01,8.297541737556457520e-01
-7.959501743316650391e+00,2.476411014795303345e-01,7.839425206184387207e-01
-7.994426727294921875e+00,2.485821694135665894e-01,7.378825545310974121e-01
-8.031839370727539062e+00,2.496088147163391113e-01,6.916606426239013672e-01
-8.072141647338867188e+00,2.507335543632507324e-01,6.452596783638000488e-01
-8.113050460815429688e+00,2.518854439258575439e-01,5.984545350074768066e-01
-8.154214859008789062e+00,2.530536949634552002e-01,5.512073040008544922e-01
-8.195795059204101562e+00,2.542434334754943848e-01,5.035197734832763672e-01
-8.237800598144531250e+00,2.554549872875213623e-01,4.553816020488739014e-01
-8.280071258544921875e+00,2.566835880279541016e-01,4.067738354206085205e-01
-8.327008247375488281e+00,2.580657005310058594e-01,3.578772842884063721e-01
-8.377289772033691406e+00,2.595604360103607178e-01,3.085538446903228760e-01
-8.429132461547851562e+00,2.611126005649566650e-01,2.586837112903594971e-01
-8.483342170715332031e+00,2.627473473548889160e-01,2.082543522119522095e-01
-8.546130180358886719e+00,2.646571695804595947e-01,1.573329716920852661e-01
-8.610116958618164062e+00,2.666136026382446289e-01,1.056673377752304077e-01
-8.675066947937011719e+00,2.686096429824829102e-01,5.323021486401557922e-02
-8.741023063659667969e+00,2.706467509269714355e-01,1.605646772122684435e-15
-8.810499191284179688e+00,2.728030383586883545e-01,-5.406122282147407532e-02
-8.890949249267578125e+00,2.753096222877502441e-01,-1.091138347983360291e-01
-8.975449562072753906e+00,2.779523432254791260e-01,-1.652366667985916138e-01
-9.071151733398437500e+00,2.809530794620513916e-01,-2.226842641830444336e-01
-9.178908348083496094e+00,2.843387126922607422e-01,-2.816937565803527832e-01
-9.288889884948730469e+00,2.878052592277526855e-01,-3.421300649642944336e-01
-9.407284736633300781e+00,2.915450036525726318e-01,-4.043053090572357178e-01
-9.541102409362792969e+00,2.957757413387298584e-01,-4.687243103981018066e-01
-9.729294776916503906e+00,3.017063438892364502e-01,-5.378306508064270020e-01
-9.961081504821777344e+00,3.090046942234039307e-01,-6.119725108146667480e-01
-1.137778377532958984e+01,3.530922532081604004e-01,-7.691135406494140625e-01
-1.477033042907714844e+01,7.677214145660400391e-01,-1.991548538208007812e+01
-1.422250080108642578e+01,7.454279065132141113e-01,-1.942480087280273438e+01
-1.380394363403320312e+01,7.296187281608581543e-01,-1.909789466857910156e+01
-1.327618312835693359e+01,7.077448964118957520e-01,-1.860715484619140625e+01
-1.314422416687011719e+01,7.068018317222595215e-01,-1.866336441040039062e+01
-1.298556995391845703e+01,7.044209241867065430e-01,-1.868052482604980469e+01
-1.262866783142089844e+01,6.911741495132446289e-01,-1.840706825256347656e+01
-1.227897453308105469e+01,6.781126260757446289e-01,-1.813490295410156250e+01
-1.183022880554199219e+01,6.593176722526550293e-01,-1.770518875122070312e+01
-1.149586009979248047e+01,6.466329693794250488e-01,-1.743542098999023438e+01
-1.116821098327636719e+01,6.341160535812377930e-01,-1.716677284240722656e+01
-1.084703350067138672e+01,6.217558383941650391e-01,-1.689903068542480469e+01
-1.043254184722900391e+01,6.037801504135131836e-01,-1.647478294372558594e+01
-1.012588596343994141e+01,5.917778015136718750e-01,-1.620972442626953125e+01
-9.825591087341308594e+00,5.799352526664733887e-01,-1.594592571258544922e+01
-9.531446456909179688e+00,5.682431459426879883e-01,-1.568321895599365234e+01
-9.243350982666015625e+00,5.566985011100769043e-01,-1.542159938812255859e+01
-8.961182594299316406e+00,5.452969074249267578e-01,-1.516102313995361328e+01
-8.685141563415527344e+00,5.340536236763000488e-01,-1.490199470520019531e+01
-8.414937973022460938e+00,5.229541659355163574e-01,-1.464418983459472656e+01
-8.150446891784667969e+00,5.119938254356384277e-01,-1.438755130767822266e+01
1.120376348495483398e+00,1.353514045476913452e-01,-6.017530918121337891e+00
1.142747640609741211e+00,1.336519569158554077e-01,-5.935076236724853516e+00
1.164588809013366699e+00,1.320022791624069214e-01,-5.854783058166503906e+00
1.185844540596008301e+00,1.303917914628982544e-01,-5.776184558868408203e+00
1.206591129302978516e+00,1.288251727819442749e-01,-5.699489116668701172e+00
1.226756334304809570e+00,1.272912025451660156e-01,-5.624201774597167969e+00
1.246544122695922852e+00,1.258077472448348999e-01,-5.551113128662109375e+00
1.265960812568664551e+00,1.243713498115539551e-01,-5.480069160461425781e+00
1.284858226776123047e+00,1.229641661047935486e-01,-5.410284042358398438e+00
1.303371787071228027e+00,1.215965524315834045e-01,-5.342213630676269531e+00
1.321463942527770996e+00,1.202621608972549438e-01,-5.275579452514648438e+00
1.339170575141906738e+00,1.189617663621902466e-01,-5.210415840148925781e+00
1.356516599655151367e+00,1.176950931549072266e-01,-5.146709918975830078e+00
1.373517274856567383e+00,1.164610981941223145e-01,-5.084416389465332031e+00
1.390187501907348633e+00,1.152588129043579102e-01,-5.023491859436035156e+00
1.406388998031616211e+00,1.140749081969261169e-01,-4.963356494903564453e+00
1.422318100929260254e+00,1.129237711429595947e-01,-4.904635906219482422e+00
1.437864542007446289e+00,1.117947548627853394e-01,-4.846867561340332031e+00
1.453100562095642090e+00,1.106919720768928528e-01,-4.790230751037597656e+00
1.468099594116210938e+00,1.096193045377731323e-01,-4.734891891479492188e+00
1.482751250267028809e+00,1.085668802261352539e-01,-4.680423259735107422e+00
1.497135400772094727e+00,1.075392514467239380e-01,-4.627022266387939453e+00
1.511264085769653320e+00,1.065358296036720276e-01,-4.574661731719970703e+00
1.525143861770629883e+00,1.055557131767272949e-01,-4.523302555084228516e+00
1.538844108581542969e+00,1.046023368835449219e-01,-4.473090171813964844e+00
1.552281618118286133e+00,1.036686897277832031e-01,-4.423723697662353516e+00
1.565491557121276855e+00,1.027560383081436157e-01,-4.375255584716796875e+00
1.578474521636962891e+00,1.018633171916007996e-01,-4.327640533447265625e+00
1.591216206550598145e+00,1.009885966777801514e-01,-4.280795097351074219e+00
1.603665113449096680e+00,1.001277416944503784e-01,-4.234544754028320312e+00
1.615912199020385742e+00,9.928564727306365967e-02,-4.189095020294189453e+00
1.628000140190124512e+00,9.846397489309310913e-02,-4.144515514373779297e+00
1.639865159988403320e+00,9.765796363353729248e-02,-4.100604057312011719e+00
1.651488661766052246e+00,9.686575829982757568e-02,-4.057282924652099609e+00
1.662980318069458008e+00,9.609305113554000854e-02,-4.014789581298828125e+00
1.685942053794860840e+00,9.599959850311279297e-02,-4.000615596771240234e+00
1.714995026588439941e+00,9.625426679849624634e-02,-4.000780582427978516e+00
1.744203329086303711e+00,9.651390463113784790e-02,-4.000945568084716797e+00
1.773571372032165527e+00,9.677863866090774536e-02,-4.001112937927246094e+00
1.803101658821105957e+00,9.704847633838653564e-02,-4.001280307769775391e+00
1.832798361778259277e+00,9.732349216938018799e-02,-4.001449108123779297e+00
1.862664580345153809e+00,9.760374575853347778e-02,-4.001617431640625000e+00
1.892704963684082031e+00,9.788934141397476196e-02,-4.001788616180419922e+00
1.922922492027282715e+00,9.818030148744583130e-02,-4.001959800720214844e+00
1.953321218490600586e+00,9.847670793533325195e-02,-4.002131462097167969e+00
1.983905911445617676e+00,9.877867251634597778e-02,-4.002305984497070312e+00
2.014679431915283203e+00,9.908621758222579956e-02,-4.002480506896972656e+00
2.045646190643310547e+00,9.939943253993988037e-02,-4.002655982971191406e+00
2.076810598373413086e+00,9.971839934587478638e-02,-4.002832412719726562e+00
2.108176946640014648e+00,1.000432074069976807e-01,-4.003010749816894531e+00
2.139749288558959961e+00,1.003739237785339355e-01,-4.003189563751220703e+00
2.171532392501831055e+00,1.007106304168701172e-01,-4.003369331359863281e+00
2.203530550003051758e+00,1.010534241795539856e-01,-4.003550529479980469e+00
2.235748767852783203e+00,1.014024093747138977e-01,-4.003733634948730469e+00
2.268191337585449219e+00,1.017576381564140320e-01,-4.003917694091796875e+00
2.300863742828369141e+00,1.021192520856857300e-01,-4.004103660583496094e+00
2.333769321441650391e+00,1.024872660636901855e-01,-4.004289627075195312e+00
2.366914749145507812e+00,1.028618589043617249e-01,-4.004477024078369141e+00
2.837925195693969727e+00,1.220662370324134827e-01,-4.734791755676269531e+00
2.914884805679321289e+00,1.241082921624183655e-01,-4.796205520629882812e+00
2.926584959030151367e+00,1.233632937073707581e-01,-4.749547004699707031e+00
2.938151836395263672e+00,1.226320192217826843e-01,-4.703453063964843750e+00
2.949689149856567383e+00,1.219183206558227539e-01,-4.658068180084228516e+00
2.961111068725585938e+00,1.212181448936462402e-01,-4.613234996795654297e+00
2.972334384918212891e+00,1.205276846885681152e-01,-4.568806171417236328e+00
2.983502388000488281e+00,1.198524087667465210e-01,-4.524987220764160156e+00
2.994528532028198242e+00,1.191884130239486694e-01,-4.481628417968750000e+00
3.005389690399169922e+00,1.185344383120536804e-01,-4.438681125640869141e+00
3.016176462173461914e+00,1.178937256336212158e-01,-4.396264553070068359e+00
3.026789188385009766e+00,1.172620281577110291e-01,-4.354218482971191406e+00
3.037247657775878906e+00,1.166398450732231140e-01,-4.312560081481933594e+00
3.047670602798461914e+00,1.160314008593559265e-01,-4.271444320678710938e+00
3.057893037796020508e+00,1.154301017522811890e-01,-4.230625629425048828e+00
3.068087816238403320e+00,1.148421987891197205e-01,-4.190331935882568359e+00
3.078106403350830078e+00,1.142618060111999512e-01,-4.150345802307128906e+00
3.087986946105957031e+00,1.136901304125785828e-01,-4.110710620880126953e+00
3.097815990447998047e+00,1.131300851702690125e-01,-4.071529865264892578e+00
3.107519388198852539e+00,1.125786751508712769e-01,-4.032693386077880859e+00
3.128490447998046875e+00,1.124451607465744019e-01,-4.008790016174316406e+00
3.168438911437988281e+00,1.129947155714035034e-01,-4.009016513824462891e+00
3.208780765533447266e+00,1.135539412498474121e-01,-4.009244441986083984e+00
3.249524831771850586e+00,1.141230314970016479e-01,-4.009474277496337891e+00
3.290682077407836914e+00,1.147022470831871033e-01,-4.009707927703857422e+00
3.332260608673095703e+00,1.152917146682739258e-01,-4.009943485260009766e+00
3.374269723892211914e+00,1.158916354179382324e-01,-4.010180473327636719e+00
3.416720390319824219e+00,1.165022626519203186e-01,-4.010420799255371094e+00
3.459622859954833984e+00,1.171238124370574951e-01,-4.010664463043212891e+00
3.502986431121826172e+00,1.177564561367034912e-01,-4.010909557342529297e+00
3.546822071075439453e+00,1.184004321694374084e-01,-4.011156558990478516e+00
3.591142416000366211e+00,1.190560311079025269e-01,-4.011407375335693359e+00
3.635957956314086914e+00,1.197234615683555603e-01,-4.011661529541015625e+00
3.681280136108398438e+00,1.204029694199562073e-01,-4.011917591094970703e+00
3.727121114730834961e+00,1.210947930812835693e-01,-4.012176036834716797e+00
3.773494005203247070e+00,1.217992529273033142e-01,-4.012438297271728516e+00
3.820411920547485352e+00,1.225166022777557373e-01,-4.012703895568847656e+00
8.307257652282714844e+00,1.885350048542022705e-01,-1.919074773788452148e+00
8.307555198669433594e+00,1.882784217596054077e-01,-1.865523934364318848e+00
8.307853698730468750e+00,1.880296468734741211e-01,-1.812116980552673340e+00
8.308150291442871094e+00,1.877885460853576660e-01,-1.758848786354064941e+00
8.308446884155273438e+00,1.875551640987396240e-01,-1.705715298652648926e+00
8.308740615844726562e+00,1.873293370008468628e-01,-1.652711153030395508e+00
8.309034347534179688e+00,1.871111243963241577e-01,-1.599832892417907715e+00
8.309329032897949219e+00,1.869004666805267334e-01,-1.547075629234313965e+00
8.309621810913085938e+00,1.866972744464874268e-01,-1.494435071945190430e+00
8.309912681579589844e+00,1.865015178918838501e-01,-1.441906571388244629e+00
8.310205459594726562e+00,1.863132417201995850e-01,-1.389486670494079590e+00
8.310497283935546875e+00,1.861323267221450806e-01,-1.337170362472534180e+00
8.310788154602050781e+00,1.859587579965591431e-01,-1.284953594207763672e+00
8.311077117919921875e+00,1.857924461364746094e-01,-1.232831835746765137e+00
8.311366081237792969e+00,1.856334656476974487e-01,-1.180801510810852051e+00
8.311655998229980469e+00,1.854817271232604980e-01,-1.128858208656311035e+00
8.311944007873535156e+00,1.853372007608413696e-01,-1.076997756958007812e+00
8.312231063842773438e+00,1.851998418569564819e-01,-1.025215864181518555e+00
8.312520027160644531e+00,1.850696951150894165e-01,-9.735091328620910645e-01
8.312807083129882812e+00,1.849466711282730103e-01,-9.218729138374328613e-01
8.313094139099121094e+00,1.848307698965072632e-01,-8.703034520149230957e-01
8.313381195068359375e+00,1.847219616174697876e-01,-8.187965750694274902e-01
8.313665390014648438e+00,1.846202015876770020e-01,-7.673482298851013184e-01
8.313952445983886719e+00,1.845255345106124878e-01,-7.159547805786132812e-01
8.314236640930175781e+00,1.844378411769866943e-01,-6.646118760108947754e-01
8.314522743225097656e+00,1.843572407960891724e-01,-6.133160591125488281e-01
8.314806938171386719e+00,1.842835992574691772e-01,-5.620629191398620605e-01
8.315091133117675781e+00,1.842169761657714844e-01,-5.108488798141479492e-01
8.315376281738281250e+00,1.841573417186737061e-01,-4.596699476242065430e-01
8.315660476684570312e+00,1.841046512126922607e-01,-4.085222184658050537e-01
8.315945625305175781e+00,1.840589344501495361e-01,-3.574018180370330811e-01
8.316228866577148438e+00,1.840201467275619507e-01,-3.063048422336578369e-01
8.316512107849121094e+00,1.839882880449295044e-01,-2.552274763584136963e-01
8.316795349121093750e+00,1.839633882045745850e-01,-2.041658759117126465e-01
8.317078590393066406e+00,1.839454025030136108e-01,-1.531161516904830933e-01
8.317362785339355469e+00,1.839343756437301636e-01,-1.020745262503623962e-01
8.317646026611328125e+00,1.839302480220794678e-01,-5.103707686066627502e-02
8.317929267883300781e+00,1.839330494403839111e-01,-5.093094232996636574e-16
8.318213462829589844e+00,1.839427947998046875e-01,5.104055628180503845e-02
8.318496704101562500e+00,1.839594393968582153e-01,1.020884364843368530e-01
8.318778991699218750e+00,1.839830130338668823e-01,1.531474739313125610e-01
8.319062232971191406e+00,1.840135306119918823e-01,2.042215168476104736e-01
8.319346427917480469e+00,1.840510070323944092e-01,2.553144693374633789e-01
8.319630622863769531e+00,1.840954124927520752e-01,3.064301311969757080e-01
8.319914817810058594e+00,1.841467916965484619e-01,3.575724065303802490e-01
8.320198059082031250e+00,1.842051148414611816e-01,4.087451398372650146e-01
8.320483207702636719e+00,1.842704266309738159e-01,4.599522352218627930e-01
8.320767402648925781e+00,1.843427270650863647e-01,5.111975669860839844e-01
8.321051597595214844e+00,1.844220161437988281e-01,5.624850988388061523e-01
8.321336746215820312e+00,1.845083236694335938e-01,6.138186454772949219e-01
8.321621894836425781e+00,1.846016794443130493e-01,6.652022600173950195e-01
8.321908950805664062e+00,1.847021281719207764e-01,7.166399359703063965e-01
8.322194099426269531e+00,1.848095953464508057e-01,7.681353688240051270e-01
8.322480201721191406e+00,1.849241554737091064e-01,8.196927905082702637e-01
8.322766304016113281e+00,1.850458234548568726e-01,8.713160157203674316e-01
1.141802120208740234e+01,2.540327310562133789e-01,1.266234755516052246e+00
6.372675418853759766e+00,2.426215261220932007e-01,8.931585311889648438e+00
4.162024021148681641e+00,1.598347872495651245e-01,5.909619808197021484e+00
4.075304031372070312e+00,1.578829586505889893e-01,5.862570285797119141e+00
4.003551483154296875e+00,1.564873903989791870e-01,5.835425376892089844e+00
3.940169572830200195e+00,1.554027497768402100e-01,5.819264411926269531e+00
3.881888389587402344e+00,1.545071750879287720e-01,5.809656620025634766e+00
3.825523138046264648e+00,1.536778360605239868e-01,5.802054882049560547e+00
3.772616386413574219e+00,1.529790014028549194e-01,5.798927783966064453e+00
3.721632003784179688e+00,1.523513644933700562e-01,5.798080921173095703e+00
3.673153638839721680e+00,1.518209874629974365e-01,5.800543785095214844e+00
3.626026153564453125e+00,1.513423919677734375e-01,5.804615974426269531e+00
3.580277919769287109e+00,1.509181857109069824e-01,5.810423374176025391e+00
3.536351680755615234e+00,1.505687534809112549e-01,5.818778514862060547e+00
3.493560791015625000e+00,1.502667665481567383e-01,5.828654289245605469e+00
3.084308385848999023e+00,1.340384930372238159e-01,5.218203544616699219e+00
2.958711385726928711e+00,1.299315392971038818e-01,5.076567173004150391e+00
2.917263984680175781e+00,1.294769495725631714e-01,5.076800823211669922e+00
2.876103401184082031e+00,1.290303319692611694e-01,5.077032566070556641e+00
2.835224390029907227e+00,1.285916268825531006e-01,5.077262401580810547e+00
2.794620513916015625e+00,1.281606853008270264e-01,5.077490329742431641e+00
2.754287242889404297e+00,1.277374476194381714e-01,5.077718257904052734e+00
2.714217185974121094e+00,1.273217499256134033e-01,5.077943325042724609e+00
2.674405813217163086e+00,1.269135028123855591e-01,5.078166961669921875e+00
2.634847640991210938e+00,1.265126466751098633e-01,5.078390121459960938e+00
2.595536947250366211e+00,1.261190325021743774e-01,5.078611373901367188e+00
2.556469440460205078e+00,1.257326006889343262e-01,5.078832149505615234e+00
2.517637729644775391e+00,1.253531873226165771e-01,5.079050064086914062e+00
2.479038953781127930e+00,1.249807700514793396e-01,5.079267024993896484e+00
2.440667152404785156e+00,1.246152296662330627e-01,5.079482555389404297e+00
2.402517795562744141e+00,1.242564842104911804e-01,5.079697132110595703e+00
2.366719961166381836e+00,1.240162774920463562e-01,5.084494590759277344e+00
2.350234031677246094e+00,1.247998699545860291e-01,5.131137847900390625e+00
2.350814819335937500e+00,1.265280693769454956e-01,5.216715812683105469e+00
2.351294755935668945e+00,1.283033341169357300e-01,5.304436206817626953e+00
2.351842641830444336e+00,1.301370710134506226e-01,5.394780635833740234e+00
2.352482557296752930e+00,1.320333182811737061e-01,5.487926483154296875e+00
2.353190422058105469e+00,1.339935362339019775e-01,5.583946228027343750e+00
2.353687524795532227e+00,1.360046416521072388e-01,5.682304382324218750e+00
2.354377746582031250e+00,1.380927264690399170e-01,5.784100532531738281e+00
2.354987621307373047e+00,1.402452439069747925e-01,5.888820648193359375e+00
2.355542421340942383e+00,1.424668580293655396e-01,5.996671199798583984e+00
2.356436491012573242e+00,1.447852998971939087e-01,6.108831882476806641e+00
2.357086181640625000e+00,1.471689492464065552e-01,6.223984241485595703e+00
2.357962369918823242e+00,1.496511250734329224e-01,6.343546390533447266e+00
2.358742475509643555e+00,1.522161662578582764e-01,6.466870307922363281e+00
2.359539747238159180e+00,1.548759341239929199e-01,6.594471931457519531e+00
2.360174417495727539e+00,1.576235890388488770e-01,6.726072788238525391e+00
2.361016273498535156e+00,1.604891717433929443e-01,6.862968444824218750e+00
2.361914634704589844e+00,1.634688973426818848e-01,7.005014419555664062e+00
2.362908601760864258e+00,1.665720939636230469e-01,7.152626514434814453e+00
2.363904476165771484e+00,1.697992682456970215e-01,7.305844306945800781e+00
2.364752531051635742e+00,1.731469035148620605e-01,7.464530944824218750e+00
2.365831375122070312e+00,1.766506731510162354e-01,7.630242347717285156e+00
2.366938591003417969e+00,1.803048700094223022e-01,7.802751064300537109e+00
-7.994041442871093750e+00,2.310226559638977051e-01,6.726393222808837891e+00
-7.716032028198242188e+00,2.218471616506576538e-01,6.412018299102783203e+00
-7.563791275024414062e+00,2.163708359003067017e-01,6.207443237304687500e+00
-7.452342510223388672e+00,2.121185660362243652e-01,6.039837360382080078e+00
-7.359805583953857422e+00,2.084519714117050171e-01,5.890387058258056641e+00
-7.285779953002929688e+00,2.053507715463638306e-01,5.758157253265380859e+00
-7.232878208160400391e+00,2.028796970844268799e-01,5.644593238830566406e+00
-7.189639568328857422e+00,2.007095515727996826e-01,5.540204524993896484e+00
-7.150478839874267578e+00,1.986806690692901611e-01,5.440428733825683594e+00
-7.112023830413818359e+00,1.966975927352905273e-01,5.342588424682617188e+00
-7.074375152587890625e+00,1.947622895240783691e-01,5.246714115142822266e+00
-7.041034698486328125e+00,1.929699033498764038e-01,5.155323028564453125e+00
-7.015675544738769531e+00,1.914185285568237305e-01,5.070925235748291016e+00
-6.992537498474121094e+00,1.899483650922775269e-01,4.989167213439941406e+00
-6.977205753326416016e+00,1.887092739343643188e-01,4.913902759552001953e+00
-6.962409973144531250e+00,1.875023692846298218e-01,4.839845657348632812e+00
-6.947842121124267578e+00,1.863188594579696655e-01,4.766755104064941406e+00
-6.933404922485351562e+00,1.851557344198226929e-01,4.694543838500976562e+00
-6.919186115264892578e+00,1.840149760246276855e-01,4.623252391815185547e+00
-6.905125141143798828e+00,1.828946322202682495e-01,4.552821159362792969e+00
-6.895225524902343750e+00,1.818999499082565308e-01,4.485836029052734375e+00
-6.887706756591796875e+00,1.809825450181961060e-01,4.421033382415771484e+00
-6.881603240966796875e+00,1.801161915063858032e-01,4.357727527618408203e+00
-6.878490924835205078e+00,1.793412715196609497e-01,4.296854496002197266e+00
-6.877175331115722656e+00,1.786256730556488037e-01,4.237591266632080078e+00
-6.875882625579833984e+00,1.779227554798126221e-01,4.178804874420166016e+00
-6.874597549438476562e+00,1.772319078445434570e-01,4.120475292205810547e+00
-6.873308181762695312e+00,1.765526980161666870e-01,4.062586307525634766e+00
-6.872044086456298828e+00,1.758856475353240967e-01,4.005146503448486328e+00
-6.870779991149902344e+00,1.752299517393112183e-01,3.948131561279296875e+00
-6.869531154632568359e+00,1.745858192443847656e-01,3.891541242599487305e+00
-6.869278907775878906e+00,1.739779561758041382e-01,3.835914850234985352e+00
-6.871452331542968750e+00,1.734419912099838257e-01,3.782006502151489258e+00
-6.874370098114013672e+00,1.729348599910736084e-01,3.728838205337524414e+00
-6.878290653228759766e+00,1.724627315998077393e-01,3.676522970199584961e+00
-6.883278369903564453e+00,1.720268428325653076e-01,3.625063896179199219e+00
-6.889886379241943359e+00,1.716405600309371948e-01,3.574715614318847656e+00
-6.896473884582519531e+00,1.712626814842224121e-01,3.524596214294433594e+00
-6.903036117553710938e+00,1.708929538726806641e-01,3.474696397781372070e+00
-6.909577846527099609e+00,1.705314218997955322e-01,3.425013542175292969e+00
-6.916080951690673828e+00,1.701775342226028442e-01,3.375533103942871094e+00
-6.922555446624755859e+00,1.698314398527145386e-01,3.326254844665527344e+00
-6.929019927978515625e+00,1.694935113191604614e-01,3.277182340621948242e+00
-6.935443878173828125e+00,1.691629141569137573e-01,3.228295803070068359e+00
-6.941850662231445312e+00,1.688401252031326294e-01,3.179601430892944336e+00
-6.948913097381591797e+00,1.685414016246795654e-01,3.131396770477294922e+00
-6.957121372222900391e+00,1.682783663272857666e-01,3.083879709243774414e+00
-6.966287612915039062e+00,1.680461764335632324e-01,3.036937475204467773e+00
-6.976060867309570312e+00,1.678361594676971436e-01,2.990393877029418945e+00
-6.986702442169189453e+00,1.676543653011322021e-01,2.944340705871582031e+00
-6.998333930969238281e+00,1.675034910440444946e-01,2.898804664611816406e+00
-7.011025905609130859e+00,1.673849970102310181e-01,2.853789091110229492e+00
-7.023762702941894531e+00,1.672744601964950562e-01,2.808860301971435547e+00
-7.036453247070312500e+00,1.671696305274963379e-01,2.763977289199829102e+00
-7.049135208129882812e+00,1.670714020729064941e-01,2.719151496887207031e+00
-7.061830043792724609e+00,1.669802069664001465e-01,2.674386978149414062e+00
-7.074482917785644531e+00,1.668947190046310425e-01,2.629659175872802734e+00
-7.087179183959960938e+00,1.668168902397155762e-01,2.584995508193969727e+00
-7.099786758422851562e+00,1.667436212301254272e-01,2.540344476699829102e+00
-7.112440586090087891e+00,1.666780114173889160e-01,2.495750665664672852e+00
-7.125049114227294922e+00,1.666178703308105469e-01,2.451178073883056641e+00
-7.137735843658447266e+00,1.665660887956619263e-01,2.406665086746215820e+00
-7.151175975799560547e+00,1.665383130311965942e-01,2.362429618835449219e+00
-7.165017127990722656e+00,1.665262281894683838e-01,2.318337917327880859e+00
-7.179399490356445312e+00,1.665330082178115845e-01,2.274423122406005859e+00
-7.194468021392822266e+00,1.665619015693664551e-01,2.230715274810791016e+00
-7.210157871246337891e+00,1.666113138198852539e-01,2.187177419662475586e+00
-7.226662158966064453e+00,1.666855812072753906e-01,2.143850803375244141e+00
-7.243743896484375000e+00,1.667791157960891724e-01,2.100646734237670898e+00
-7.261597156524658203e+00,1.668963432312011719e-01,2.057605743408203125e+00
-7.279665946960449219e+00,1.670243889093399048e-01,2.014554977416992188e+00
-7.298727035522460938e+00,1.671809852123260498e-01,1.971696734428405762e+00
-7.317889213562011719e+00,1.673456728458404541e-01,1.928773641586303711e+00
-7.337069511413574219e+00,1.675165146589279175e-01,1.885758876800537109e+00
-7.356288909912109375e+00,1.676940321922302246e-01,1.842654466629028320e+00
-7.375536918640136719e+00,1.678779572248458862e-01,1.799453854560852051e+00
-7.394873619079589844e+00,1.680696457624435425e-01,1.756167531013488770e+00
-7.414177894592285156e+00,1.682663559913635254e-01,1.712762713432312012e+00
-7.433570861816406250e+00,1.684708595275878906e-01,1.669264078140258789e+00
-7.453075885772705078e+00,1.686836630105972290e-01,1.625672101974487305e+00
-7.472525119781494141e+00,1.689009815454483032e-01,1.581945776939392090e+00
-7.492545127868652344e+00,1.691369712352752686e-01,1.538211584091186523e+00
-7.513614177703857422e+00,1.694023758172988892e-01,1.494550824165344238e+00
-7.535893440246582031e+00,1.697007566690444946e-01,1.450971126556396484e+00
-7.558976173400878906e+00,1.700228899717330933e-01,1.407370924949645996e+00
-7.583549976348876953e+00,1.703841835260391235e-01,1.363855481147766113e+00
-7.609068870544433594e+00,1.707723140716552734e-01,1.320298671722412109e+00
-7.636129379272460938e+00,1.712005883455276489e-01,1.276779532432556152e+00
-7.663707256317138672e+00,1.716460138559341431e-01,1.233101010322570801e+00
-7.691484451293945312e+00,1.721014678478240967e-01,1.189201235771179199e+00
-7.719472408294677734e+00,1.725672632455825806e-01,1.145075559616088867e+00
-7.747543811798095703e+00,1.730405390262603760e-01,1.100698828697204590e+00
-7.775819778442382812e+00,1.735240817070007324e-01,1.056082844734191895e+00
-7.804202556610107422e+00,1.740157306194305420e-01,1.011208415031433105e+00
-7.832781791687011719e+00,1.745175123214721680e-01,9.660815000534057617e-01
-7.861568450927734375e+00,1.750297397375106812e-01,9.206966161727905273e-01
-7.892550468444824219e+00,1.755966246128082275e-01,8.752673268318176270e-01
-7.924831867218017578e+00,1.761982589960098267e-01,8.296559453010559082e-01
-7.958514213562011719e+00,1.768368929624557495e-01,7.838452458381652832e-01
-7.995081424713134766e+00,1.775454431772232056e-01,7.379429936408996582e-01
-8.033571243286132812e+00,1.783025711774826050e-01,6.918098330497741699e-01
-8.073912620544433594e+00,1.791066676378250122e-01,6.454012393951416016e-01
-8.114837646484375000e+00,1.799296438694000244e-01,5.985863804817199707e-01
-8.156018257141113281e+00,1.807643324136734009e-01,5.513291954994201660e-01
-8.197616577148437500e+00,1.816143691539764404e-01,5.036316514015197754e-01
-8.239638328552246094e+00,1.824799925088882446e-01,4.554831981658935547e-01
-8.281926155090332031e+00,1.833577901124954224e-01,4.068649709224700928e-01
-8.327275276184082031e+00,1.843097060918807983e-01,3.578887581825256348e-01
-8.375898361206054688e+00,1.853405088186264038e-01,3.085026144981384277e-01
-8.427997589111328125e+00,1.864547133445739746e-01,2.586488723754882812e-01
-8.485517501831054688e+00,1.876954287290573120e-01,2.083077579736709595e-01
-8.548439025878906250e+00,1.890622973442077637e-01,1.573754549026489258e-01
-8.612457275390625000e+00,1.904602497816085815e-01,1.056960597634315491e-01
-8.677438735961914062e+00,1.918864548206329346e-01,5.324476584792137146e-02
-8.743414878845214844e+00,1.933417469263076782e-01,1.606086170464072604e-15
-8.811917304992675781e+00,1.948602050542831421e-01,-5.406992882490158081e-02
-8.888981819152832031e+00,1.965754628181457520e-01,-1.090897023677825928e-01
-8.975187301635742188e+00,1.985005289316177368e-01,-1.652318537235260010e-01
-9.074615478515625000e+00,2.007260024547576904e-01,-2.227693200111389160e-01
-9.182415008544921875e+00,2.031448930501937866e-01,-2.818013727664947510e-01
-9.292448043823242188e+00,2.056217789649963379e-01,-3.422611355781555176e-01
-9.408687591552734375e+00,2.082448750734329224e-01,-4.043655693531036377e-01
-9.541419982910156250e+00,2.112423628568649292e-01,-4.687399268150329590e-01
-9.727365493774414062e+00,2.154280990362167358e-01,-5.377240180969238281e-01
-9.966348648071289062e+00,2.207998037338256836e-01,-6.122961044311523438e-01
-1.136785984039306641e+01,2.519493699073791504e-01,-7.684427499771118164e-01
-1.302143096923828125e+01,4.072098433971405029e-01,-1.302143096923828125e+01
-1.237819671630859375e+01,3.894916474819183350e-01,-1.253104019165039062e+01
-1.174866104125976562e+01,3.720004558563232422e-01,-1.204061412811279297e+01
-1.113256072998046875e+01,3.547300696372985840e-01,-1.155014514923095703e+01
-1.037378311157226562e+01,3.326763510704040527e-01,-1.089592552185058594e+01
-9.785728454589843750e+00,3.158596158027648926e-01,-1.040537834167480469e+01
-9.210374832153320312e+00,2.992466390132904053e-01,-9.914796829223632812e+00
-8.647495269775390625e+00,2.828320562839508057e-01,-9.424178123474121094e+00
-8.276614189147949219e+00,2.725292444229125977e-01,-9.131836891174316406e+00
-7.784843921661376953e+00,2.580885291099548340e-01,-8.695891380310058594e+00
-7.305044174194335938e+00,2.438578456640243530e-01,-8.261388778686523438e+00
-7.121680736541748047e+00,2.394025474786758423e-01,-8.154304504394531250e+00
-7.082294464111328125e+00,2.397675663232803345e-01,-8.210348129272460938e+00
-7.042919635772705078e+00,2.401472777128219604e-01,-8.266719818115234375e+00
-7.003371238708496094e+00,2.405356466770172119e-01,-8.323218345642089844e+00
-6.963909149169921875e+00,2.409418374300003052e-01,-8.380161285400390625e+00
-6.924348831176757812e+00,2.413598001003265381e-01,-8.437343597412109375e+00
-6.884361267089843750e+00,2.417781949043273926e-01,-8.494371414184570312e+00
-6.844147682189941406e+00,2.422041296958923340e-01,-8.551491737365722656e+00
-6.288153648376464844e+00,2.242517918348312378e-01,-7.956382274627685547e+00
-6.209573268890380859e+00,2.231863737106323242e-01,-7.956832408905029297e+00
-6.131734371185302734e+00,2.221394032239913940e-01,-7.957280158996582031e+00
-6.054618835449218750e+00,2.211104631423950195e-01,-7.957723140716552734e+00
-5.978212356567382812e+00,2.200993001461029053e-01,-7.958162307739257812e+00
-5.902497291564941406e+00,2.191054970026016235e-01,-7.958596229553222656e+00
-5.827460765838623047e+00,2.181288301944732666e-01,-7.959027290344238281e+00
-5.753087997436523438e+00,2.171689867973327637e-01,-7.959455013275146484e+00
-5.679363727569580078e+00,2.162256389856338501e-01,-7.959877967834472656e+00
-5.966091632843017578e+00,2.291166335344314575e-01,-8.471199035644531250e+00
-6.342886447906494141e+00,2.457322627305984497e-01,-9.124624252319335938e+00
-6.300022602081298828e+00,2.462498992681503296e-01,-9.182674407958984375e+00
-6.257068634033203125e+00,2.467826902866363525e-01,-9.241108894348144531e+00
-6.213875293731689453e+00,2.473250627517700195e-01,-9.299721717834472656e+00
-6.170426845550537109e+00,2.478766441345214844e-01,-9.358498573303222656e+00
-6.126819133758544922e+00,2.484415471553802490e-01,-9.417597770690917969e+00
-6.082901000976562500e+00,2.490139305591583252e-01,-9.476797103881835938e+00
-6.038825035095214844e+00,2.496003210544586182e-01,-9.536346435546875000e+00
-5.994694232940673828e+00,2.502053976058959961e-01,-9.596427917480468750e+00
-5.950296878814697266e+00,2.508207261562347412e-01,-9.656720161437988281e+00
-5.905725002288818359e+00,2.514505684375762939e-01,-9.717389106750488281e+00
-5.860768318176269531e+00,2.520862817764282227e-01,-9.778101921081542969e+00
-5.815524578094482422e+00,2.527322173118591309e-01,-9.839025497436523438e+00
-5.770211696624755859e+00,2.533982992172241211e-01,-9.900548934936523438e+00
-5.724727153778076172e+00,2.540806233882904053e-01,-9.962520599365234375e+00
-5.678915977478027344e+00,2.547726333141326904e-01,-1.002468872070312500e+01
1.120253205299377441e+00,8.119344711303710938e-02,-6.016869068145751953e+00
1.142614483833312988e+00,8.017347007989883423e-02,-5.934384822845458984e+00
1.164458751678466797e+00,7.918426394462585449e-02,-5.854129314422607422e+00
1.185733079910278320e+00,7.821956276893615723e-02,-5.775641918182373047e+00
1.206493854522705078e+00,7.728081196546554565e-02,-5.699029922485351562e+00
1.226659893989562988e+00,7.636074721813201904e-02,-5.623759269714355469e+00
1.246449947357177734e+00,7.547107338905334473e-02,-5.550693988800048828e+00
1.265865087509155273e+00,7.460939139127731323e-02,-5.479655265808105469e+00
1.284754753112792969e+00,7.376486063003540039e-02,-5.409848213195800781e+00
1.303264975547790527e+00,7.294434309005737305e-02,-5.341775894165039062e+00
1.321354985237121582e+00,7.214382290840148926e-02,-5.275144577026367188e+00
1.339041233062744141e+00,7.136272639036178589e-02,-5.209912300109863281e+00
1.356374263763427734e+00,7.060228288173675537e-02,-5.146170139312744141e+00
1.373372793197631836e+00,6.986202299594879150e-02,-5.083881855010986328e+00
1.390040993690490723e+00,6.914079189300537109e-02,-5.022963047027587891e+00
1.406241059303283691e+00,6.843061000108718872e-02,-4.962834358215332031e+00
1.422168016433715820e+00,6.774004548788070679e-02,-4.904118537902832031e+00
1.437711715698242188e+00,6.706272810697555542e-02,-4.846352577209472656e+00
1.452945709228515625e+00,6.640118360519409180e-02,-4.789720058441162109e+00
1.467943429946899414e+00,6.575772166252136230e-02,-4.734387874603271484e+00
1.482593417167663574e+00,6.512640416622161865e-02,-4.679925441741943359e+00
1.496967911720275879e+00,6.450960040092468262e-02,-4.626504421234130859e+00
1.511090755462646484e+00,6.390749663114547729e-02,-4.574137210845947266e+00
1.524968624114990234e+00,6.331954896450042725e-02,-4.522782802581787109e+00
1.538660645484924316e+00,6.274737417697906494e-02,-4.472556591033935547e+00
1.552096605300903320e+00,6.218731775879859924e-02,-4.423196315765380859e+00
1.565303564071655273e+00,6.163978949189186096e-02,-4.374730587005615234e+00
1.578268647193908691e+00,6.110364571213722229e-02,-4.327075958251953125e+00
1.590983867645263672e+00,6.057799234986305237e-02,-4.280170440673828125e+00
1.603424191474914551e+00,6.006135046482086182e-02,-4.233908176422119141e+00
1.615670680999755859e+00,5.955626815557479858e-02,-4.188468456268310547e+00
1.627757430076599121e+00,5.906341969966888428e-02,-4.143897533416748047e+00
1.639622807502746582e+00,5.858000740408897400e-02,-4.099997997283935547e+00
1.651257753372192383e+00,5.810526758432388306e-02,-4.056715488433837891e+00
1.662793397903442383e+00,5.764334276318550110e-02,-4.014338493347167969e+00
1.685773253440856934e+00,5.758798867464065552e-02,-4.000215053558349609e+00
1.714823484420776367e+00,5.774075910449028015e-02,-4.000380039215087891e+00
1.744029283523559570e+00,5.789652466773986816e-02,-4.000546455383300781e+00
1.773393988609313965e+00,5.805532261729240417e-02,-4.000712871551513672e+00
1.802921533584594727e+00,5.821719393134117126e-02,-4.000880241394042969e+00
1.832615137100219727e+00,5.838216841220855713e-02,-4.001049041748046875e+00
1.862478971481323242e+00,5.855030193924903870e-02,-4.001218795776367188e+00
1.892516136169433594e+00,5.872161686420440674e-02,-4.001389026641845703e+00
1.922730684280395508e+00,5.889615789055824280e-02,-4.001560211181640625e+00
1.953126430511474609e+00,5.907396972179412842e-02,-4.001732349395751953e+00
1.983707904815673828e+00,5.925510823726654053e-02,-4.001906394958496094e+00
2.014478445053100586e+00,5.943959951400756836e-02,-4.002080917358398438e+00
2.045442104339599609e+00,5.962749198079109192e-02,-4.002256870269775391e+00
2.076603174209594727e+00,5.981882661581039429e-02,-4.002432823181152344e+00
2.107967138290405273e+00,6.001369282603263855e-02,-4.002612113952636719e+00
2.139536380767822266e+00,6.021207943558692932e-02,-4.002790927886962891e+00
2.171316146850585938e+00,6.041405722498893738e-02,-4.002970695495605469e+00
2.203311204910278320e+00,6.061969324946403503e-02,-4.003151893615722656e+00
2.235526323318481445e+00,6.082904338836669922e-02,-4.003335475921630859e+00
2.267966032028198242e+00,6.104214861989021301e-02,-4.003520011901855469e+00
2.300634622573852539e+00,6.125905737280845642e-02,-4.003705024719238281e+00
2.333537340164184570e+00,6.147983670234680176e-02,-4.003891468048095703e+00
2.366679906845092773e+00,6.170454993844032288e-02,-4.004079818725585938e+00
2.837602138519287109e+00,7.322376966476440430e-02,-4.734252929687500000e+00
2.914582014083862305e+00,7.444947957992553711e-02,-4.795707225799560547e+00
2.926282167434692383e+00,7.400260120630264282e-02,-4.749055862426757812e+00
2.937847614288330078e+00,7.356391847133636475e-02,-4.702966213226318359e+00
2.949383974075317383e+00,7.313579320907592773e-02,-4.657586097717285156e+00
2.960805892944335938e+00,7.271580398082733154e-02,-4.612759113311767578e+00
2.972028970718383789e+00,7.230164110660552979e-02,-4.568336486816406250e+00
2.983195304870605469e+00,7.189654558897018433e-02,-4.524521827697753906e+00
2.994220495223999023e+00,7.149823755025863647e-02,-4.481167793273925781e+00
3.005079984664916992e+00,7.110591977834701538e-02,-4.438223838806152344e+00
3.015868186950683594e+00,7.072163373231887817e-02,-4.395815372467041016e+00
3.026518583297729492e+00,7.034359127283096313e-02,-4.353829383850097656e+00
3.036987066268920898e+00,6.997060030698776245e-02,-4.312190055847167969e+00
3.047408819198608398e+00,6.960559636354446411e-02,-4.271077632904052734e+00
3.057629823684692383e+00,6.924487650394439697e-02,-4.230261325836181641e+00
3.067815542221069336e+00,6.889201700687408447e-02,-4.189960002899169922e+00
3.077806711196899414e+00,6.854326277971267700e-02,-4.149941921234130859e+00
3.087686300277709961e+00,6.820032000541687012e-02,-4.110310554504394531e+00
3.097513675689697266e+00,6.786435097455978394e-02,-4.071132659912109375e+00
3.107216596603393555e+00,6.753357499837875366e-02,-4.032300472259521484e+00
3.128181457519531250e+00,6.745339930057525635e-02,-4.008394241333007812e+00
3.168125867843627930e+00,6.778305768966674805e-02,-4.008620262145996094e+00
3.208463907241821289e+00,6.811853498220443726e-02,-4.008848667144775391e+00
3.249204635620117188e+00,6.845993548631668091e-02,-4.009078979492187500e+00
3.290357828140258789e+00,6.880738586187362671e-02,-4.009312629699707031e+00
3.331931829452514648e+00,6.916099041700363159e-02,-4.009547710418701172e+00
3.373937845230102539e+00,6.952089071273803711e-02,-4.009786128997802734e+00
3.416384220123291016e+00,6.988719105720520020e-02,-4.010025978088378906e+00
3.459281682968139648e+00,7.026003301143646240e-02,-4.010268688201904297e+00
3.502641439437866211e+00,7.063955068588256836e-02,-4.010514736175537109e+00
3.546473741531372070e+00,7.102587074041366577e-02,-4.010762691497802734e+00
3.590789556503295898e+00,7.141914963722229004e-02,-4.011013507843017578e+00
3.635600566864013672e+00,7.181952148675918579e-02,-4.011267185211181641e+00
3.680918693542480469e+00,7.222715020179748535e-02,-4.011523723602294922e+00
3.726755380630493164e+00,7.264216989278793335e-02,-4.011782646179199219e+00
3.773124456405639648e+00,7.306477427482604980e-02,-4.012045383453369141e+00
3.820037364959716797e+00,7.349509000778198242e-02,-4.012310504913330078e+00
8.306367874145507812e+00,1.130970865488052368e-01,-1.918869137763977051e+00
8.306664466857910156e+00,1.129431650042533875e-01,-1.865324020385742188e+00
8.306962966918945312e+00,1.127939224243164062e-01,-1.811922788619995117e+00
8.307260513305664062e+00,1.126493141055107117e-01,-1.758660435676574707e+00
