2.9336016178131104,-0.26954132318496704,-4.696168422698975
2.9451663494110107,-0.2679767608642578,-4.650926113128662
2.956617593765259,-0.2664420008659363,-4.606234073638916
2.9678714275360107,-0.2649286091327667,-4.561946392059326
2.9790687561035156,-0.2634483873844147,-4.518263339996338
2.9901247024536133,-0.261992871761322,-4.475038051605225
3.0010156631469727,-0.2605593204498291,-4.432221412658691
3.0118305683135986,-0.25915470719337463,-4.389930248260498
3.022477626800537,-0.2577703297138214,-4.348016262054443
3.032966136932373,-0.25640639662742615,-4.306480884552002
3.04341983795166,-0.2550727128982544,-4.265486717224121
3.05367374420166,-0.2537546455860138,-4.224788188934326
3.0638985633850098,-0.2524658739566803,-4.184610366821289
3.0739312171936035,-0.25119224190711975,-4.144716739654541
3.083847761154175,-0.2499394714832306,-4.10520076751709
3.0937085151672363,-0.24871185421943665,-4.066131591796875
3.1034343242645264,-0.247502401471138,-4.0273919105529785
3.1312122344970703,-0.24774964153766632,-4.012277603149414
3.1712393760681152,-0.24896392226219177,-4.01255989074707
3.2116615772247314,-0.2501995861530304,-4.012844085693359
3.2524890899658203,-0.2514570951461792,-4.013131618499756
3.293731689453125,-0.25273698568344116,-4.013423919677734
3.3353965282440186,-0.254039466381073,-4.013716697692871
3.3774948120117188,-0.25536513328552246,-4.014013290405273
3.420037269592285,-0.25671446323394775,-4.0143141746521
3.463031768798828,-0.25808781385421753,-4.0146164894104
3.5064921379089355,-0.2594859004020691,-4.014923572540283
3.550426483154297,-0.26090896129608154,-4.015233039855957
3.5948469638824463,-0.2623576819896698,-4.015545845031738
3.639765739440918,-0.26383259892463684,-4.015862464904785
3.6851933002471924,-0.2653341591358185,-4.0161824226379395
3.7311437129974365,-0.2668631076812744,-4.016506671905518
3.777628183364868,-0.26841992139816284,-4.016834259033203
3.824660062789917,-0.2700052559375763,-4.0171661376953125
8.30262565612793,-0.4148053228855133,-1.9180045127868652
8.302993774414062,-0.4142443537712097,-1.864499568939209
8.303361892700195,-0.41370049118995667,-1.811137318611145
8.303728103637695,-0.4131735563278198,-1.7579128742218018
8.304094314575195,-0.4126635193824768,-1.7048218250274658
8.304459571838379,-0.4121702015399933,-1.6518597602844238
8.30482292175293,-0.4116935133934021,-1.5990220308303833
8.30518627166748,-0.41123339533805847,-1.5463043451309204
8.305548667907715,-0.4107897877693176,-1.4937025308609009
8.305909156799316,-0.41036251187324524,-1.4412119388580322
8.306270599365234,-0.4099516272544861,-1.3888287544250488
8.306631088256836,-0.40955695509910583,-1.3365482091903687
8.306989669799805,-0.40917840600013733,-1.284366250038147
8.307348251342773,-0.4088158905506134,-1.2322787046432495
8.307706832885742,-0.40846946835517883,-1.1802815198898315
8.308062553405762,-0.40813884139060974,-1.1283701658248901
8.308419227600098,-0.40782418847084045,-1.0765409469604492
8.30877685546875,-0.4075253903865814,-1.024789810180664
8.30913257598877,-0.4072423279285431,-0.9731124639511108
8.309489250183105,-0.40697500109672546,-0.9215049743652344
8.309842109680176,-0.4067232012748718,-0.8699629902839661
8.310196876525879,-0.4064871072769165,-0.8184829950332642
8.310551643371582,-0.40626657009124756,-0.7670607566833496
8.310906410217285,-0.406061589717865,-0.7156924605369568
8.311258316040039,-0.4058719873428345,-0.6643738746643066
8.311610221862793,-0.4056978225708008,-0.6131012439727783
8.311962127685547,-0.40553903579711914,-0.5618706345558167
8.312314987182617,-0.4053957760334015,-0.5106782913208008
8.312666893005371,-0.4052678048610687,-0.4595201909542084
8.313017845153809,-0.40515512228012085,-0.40839239954948425
8.313370704650879,-0.4050578474998474,-0.35729119181632996
8.313721656799316,-0.4049757719039917,-0.30621251463890076
8.31407356262207,-0.4049089848995209,-0.2551526427268982
8.314423561096191,-0.40485742688179016,-0.2041076421737671
8.314774513244629,-0.40482115745544434,-0.1530737429857254
8.315125465393066,-0.4048001766204834,-0.10204707086086273
8.315475463867188,-0.4047943353652954,-0.051023758947849274
8.315827369689941,-0.4048038423061371,-5.091807272312402e-16
8.316177368164062,-0.4048284888267517,0.051028065383434296
8.3165283203125,-0.4048684239387512,0.10206427425146103
8.316879272460938,-0.4049236476421356,0.1531124860048294
8.317231178283691,-0.4049941301345825,0.20417656004428864
8.317582130432129,-0.4050798714160919,0.25526031851768494
8.317931175231934,-0.40518081188201904,0.30636754631996155
8.31828498840332,-0.40529727935791016,0.35750240087509155
8.318635940551758,-0.4054289162158966,0.4086683988571167
8.318988800048828,-0.40557602047920227,0.4598696529865265
8.319340705871582,-0.4057384431362152,0.5111099481582642
8.319693565368652,-0.4059162735939026,0.5623932480812073
8.320047378540039,-0.40610963106155396,0.6137235164642334
8.320399284362793,-0.4063183665275574,0.6651045680046082
8.320754051208496,-0.40654274821281433,0.716540515422821
8.321107864379883,-0.4067826271057129,0.7680351138114929
8.32146167755127,-0.4070380926132202,0.8195924162864685
8.321816444396973,-0.40730926394462585,0.8712165355682373
8.708137512207031,-0.4264996647834778,0.9657142758369446
4.485431671142578,-0.37592944502830505,6.286530017852783
4.147859573364258,-0.3506592810153961,5.88950777053833
4.065939426422119,-0.3467613756656647,5.8490986824035645
3.9953532218933105,-0.3437824845314026,5.8234758377075195
3.9340593814849854,-0.3415696322917938,5.810239791870117
3.876224994659424,-0.33963245153427124,5.801180839538574
3.820026397705078,-0.33781689405441284,5.793717861175537
3.7677316665649414,-0.33632853627204895,5.791419506072998
3.7171578407287598,-0.33497971296310425,5.791110515594482
3.668386459350586,-0.3337815999984741,5.793015480041504
3.6225662231445312,-0.3328438699245453,5.79907751083374
3.5772273540496826,-0.33194485306739807,5.8054728507995605
3.533149242401123,-0.3311585485935211,5.813509464263916
3.28163480758667,-0.3107273578643799,5.475077152252197
2.997147560119629,-0.2867308557033539,5.07073974609375
2.9554855823516846,-0.28571656346321106,5.0710320472717285
2.9141156673431396,-0.2847200930118561,5.071322441101074
2.873032331466675,-0.28374120593070984,5.071610927581787
2.8322277069091797,-0.2827795445919037,5.071896076202393
2.7916979789733887,-0.28183504939079285,5.072180271148682
2.751436948776245,-0.28090739250183105,5.072463512420654
2.7114381790161133,-0.27999627590179443,5.072743892669678
2.671696662902832,-0.27910158038139343,5.073022842407227
2.632206439971924,-0.2782229781150818,5.073299407958984
2.5929627418518066,-0.2773602604866028,5.073574066162109
2.5539605617523193,-0.27651333808898926,5.073848247528076
2.5151941776275635,-0.27568188309669495,5.074120044708252
2.476658821105957,-0.2748657464981079,5.074390411376953
2.438349485397339,-0.27406471967697144,5.0746588706970215
2.4002609252929688,-0.2732785642147064,5.074925422668457
2.366438150405884,-0.2729741930961609,5.083889484405518
2.356771469116211,-0.27549585700035095,5.145410537719727
2.35744571685791,-0.2793217599391937,5.231430530548096
2.3580493927001953,-0.28325551748275757,5.319674491882324
2.3587379455566406,-0.2873207926750183,5.410597324371338
2.3595263957977295,-0.2915254831314087,5.504358291625977
2.360387086868286,-0.2958725094795227,5.6010236740112305
2.3610308170318604,-0.3003316819667816,5.7000322341918945
2.3618693351745605,-0.30496159195899963,5.8025054931640625
2.3626158237457275,-0.3097327947616577,5.907895088195801
2.3633158206939697,-0.31465837359428406,6.01646089553833
2.364368438720703,-0.3197999894618988,6.12939453125
2.3651626110076904,-0.32508453726768494,6.245309829711914
2.366154670715332,-0.33058324456214905,6.365585803985596
2.3670570850372314,-0.3362664580345154,6.489665985107422
2.368029832839966,-0.3421671986579895,6.618199825286865
2.368889331817627,-0.34827032685279846,6.750909328460693
2.3699469566345215,-0.3546336591243744,6.888927936553955
2.3710296154022217,-0.3612455427646637,7.032047271728516
2.372209072113037,-0.3681313991546631,7.180778980255127
2.373443603515625,-0.37530073523521423,7.335325717926025
2.3745555877685547,-0.38274189829826355,7.495475769042969
2.3758530616760254,-0.39052215218544006,7.662563800811768
2.3772056102752686,-0.39864081144332886,7.836596488952637
-7.704861164093018,-0.4876624047756195,6.402735233306885
-7.582474708557129,-0.47749054431915283,6.222776412963867
-7.463624477386475,-0.4676600396633148,6.048980712890625
-7.349507808685303,-0.45823949575424194,5.882144927978516
-7.263987064361572,-0.4507024884223938,5.740933895111084
-7.2132720947265625,-0.4454042613506317,5.6292924880981445
-7.164487361907959,-0.4402918517589569,5.520822525024414
-7.121836185455322,-0.4356192350387573,5.418635845184326
-7.085708141326904,-0.4314035475254059,5.32282018661499
-7.056996822357178,-0.427692174911499,5.23382568359375
-7.029350280761719,-0.42409470677375793,5.146767616271973
-7.002152919769287,-0.42057231068611145,5.061151027679443
-6.975423812866211,-0.41712474822998047,4.976956367492676
-6.958389759063721,-0.4143001437187195,4.900650978088379
-6.943055152893066,-0.41161614656448364,4.826391696929932
-6.9286651611328125,-0.4090261161327362,4.753598213195801
-6.915168285369873,-0.4065256416797638,4.682196140289307
-6.907497406005859,-0.4044021964073181,4.615442276000977
-6.90037727355957,-0.40234336256980896,4.5496907234191895
-6.893309116363525,-0.4003192186355591,4.484589576721191
-6.886335849761963,-0.3983316719532013,4.4201531410217285
-6.879411697387695,-0.3963775038719177,4.356339454650879
-6.872562885284424,-0.3944576680660248,4.293150901794434
-6.865954875946045,-0.3925810158252716,4.230677127838135
-6.861666202545166,-0.39086538553237915,4.170164585113525
-6.860462188720703,-0.3893521726131439,4.112002849578857
-6.859274387359619,-0.3878656327724457,4.054291725158691
-6.858187675476074,-0.38641005754470825,3.997070789337158
-6.857472896575928,-0.38500022888183594,3.9404850006103516
-6.859477519989014,-0.38376691937446594,3.8858461380004883
-6.863406658172607,-0.3826638162136078,3.8326358795166016
-6.867437839508057,-0.38158828020095825,3.779796838760376
-6.8714423179626465,-0.380532830953598,3.727250099182129
-6.875418186187744,-0.37949708104133606,3.674987554550171
-6.87939453125,-0.3784823715686798,3.623018264770508
-6.883405685424805,-0.3774903416633606,3.5713534355163574
-6.887723445892334,-0.3765355050563812,3.5201239585876465
-6.893240451812744,-0.37566614151000977,3.4697656631469727
-6.899832248687744,-0.37487462162971497,3.420182704925537
-6.906395435333252,-0.3741004168987274,3.3708059787750244
-6.912928104400635,-0.37334322929382324,3.321629047393799
-6.920258045196533,-0.3726474642753601,3.273038387298584
-6.928011417388916,-0.37199243903160095,3.2248363494873047
-6.936025142669678,-0.37136903405189514,3.1769330501556396
-6.944031238555908,-0.3707626461982727,3.129197120666504
-6.952028751373291,-0.3701730966567993,3.081622362136841
-6.962400436401367,-0.3697267472743988,3.035243034362793
-6.9732441902160645,-0.3693216145038605,2.9891865253448486
-6.9840474128723145,-0.3689303398132324,2.9432218074798584
-6.99484920501709,-0.36855489015579224,2.8973615169525146
-7.005645275115967,-0.3681948482990265,2.8515989780426025
-7.016862869262695,-0.36787256598472595,2.806101083755493
-7.028275966644287,-0.36757588386535645,2.760765314102173
-7.040977954864502,-0.3673616647720337,2.7160048484802246
-7.053721904754639,-0.3671644628047943,2.671316385269165
-7.066413402557373,-0.3669792413711548,2.626659631729126
-7.0792646408081055,-0.3668169379234314,2.582108736038208
-7.092710494995117,-0.36669984459877014,2.5378124713897705
-7.106544494628906,-0.3666170835494995,2.4936816692352295
-7.120787620544434,-0.36656951904296875,2.449712038040161
-7.13509464263916,-0.36653921008110046,2.4057743549346924
-7.149409294128418,-0.3665231764316559,2.3618457317352295
-7.163729667663574,-0.36652129888534546,2.3179214000701904
-7.1780595779418945,-0.36653366684913635,2.273998737335205
-7.192964553833008,-0.3665890693664551,2.2302491664886475
-7.2090020179748535,-0.3667156398296356,2.186826705932617
-7.226088523864746,-0.3669087886810303,2.1436805725097656
-7.2434306144714355,-0.3671279847621918,2.100555896759033
-7.2608561515808105,-0.36736443638801575,2.0573956966400146
-7.2782392501831055,-0.36761170625686646,2.01416015625
-7.295703411102295,-0.3678760528564453,1.9708799123764038
-7.313394546508789,-0.3681647777557373,1.9275888204574585
-7.3316330909729,-0.368493914604187,1.8843616247177124
-7.350236892700195,-0.36885422468185425,1.8411386013031006
-7.369517803192139,-0.3692612051963806,1.797985315322876
-7.388896942138672,-0.3696857690811157,1.7547481060028076
-7.408397674560547,-0.3701290488243103,1.7114273309707642
-7.428622245788574,-0.3706211447715759,1.668152928352356
-7.449665546417236,-0.3711665868759155,1.6249282360076904
-7.471169471740723,-0.3717474341392517,1.5816587209701538
-7.493033409118652,-0.37235864996910095,1.5383118391036987
-7.514945983886719,-0.37298473715782166,1.494815707206726
-7.536979675292969,-0.3736293613910675,1.451180338859558
-7.559353828430176,-0.37430334091186523,1.4074413776397705
-7.584057331085205,-0.375105082988739,1.363946795463562
-7.609699249267578,-0.37596550583839417,1.3204079866409302
-7.6354146003723145,-0.3768419027328491,1.2766599655151367
-7.661624431610107,-0.3777550160884857,1.232765793800354
-7.688385486602783,-0.3787077069282532,1.1887221336364746
-7.716181755065918,-0.37972378730773926,1.1445873975753784
-7.7442946434021,-0.3807678818702698,1.100237250328064
-7.773049354553223,-0.3818559944629669,1.0557066202163696
-7.803117752075195,-0.38302111625671387,1.0110678672790527
-7.83457612991333,-0.38426700234413147,0.966302752494812
-7.866838455200195,-0.3855648636817932,0.9213137626647949
-7.8992743492126465,-0.38688385486602783,0.8760130405426025
-7.931986331939697,-0.3882291316986084,0.8304049968719482
-7.9648308753967285,-0.38959378004074097,0.784467339515686
-7.9980854988098145,-0.3909914493560791,0.7382202744483948
-8.032970428466797,-0.3924819231033325,0.6917580366134644
-8.07143497467041,-0.3941604495048523,0.645203173160553
-8.112074851989746,-0.3959583044052124,0.5983825922012329
-8.15328311920166,-0.3977971374988556,0.5511443018913269
-8.195837020874023,-0.3997150957584381,0.5035223364830017
-8.241856575012207,-0.4018155336380005,0.45560580492019653
-8.291898727416992,-0.40412580966949463,0.4073548913002014
-8.342822074890137,-0.40649279952049255,0.35855692625045776
-8.39416790008545,-0.408894419670105,0.3091755211353302
-8.446148872375488,-0.4113413095474243,0.2592059373855591
-8.498988151550293,-0.4138445258140564,0.20863845944404602
-8.553116798400879,-0.41642531752586365,0.15746158361434937
-8.612377166748047,-0.4192710518836975,0.10569506883621216
-8.67768669128418,-0.42242664098739624,0.053246285766363144
-8.744933128356934,-0.4256921708583832,1.6063651619410745e-15
-8.819026947021484,-0.4293070137500763,-0.05411354824900627
-8.905900955200195,-0.4335605204105377,-0.10929733514785767
-8.994497299194336,-0.43791481852531433,-0.16558733582496643
-9.08493423461914,-0.44237619638442993,-0.22302260994911194
-9.18569278717041,-0.44735828042030334,-0.2819019556045532
-9.303665161132812,-0.4531976282596588,-0.34267428517341614
-9.433195114135742,-0.45961976051330566,-0.40541884303092957
-9.578497886657715,-0.4668313264846802,-0.4705614149570465
-9.835649490356445,-0.4795178174972534,-0.543709933757782
-10.111129760742188,-0.4931248724460602,-0.6211909651756287
-6.2801361083984375,-0.4930335283279419,-7.946238040924072
-6.201737880706787,-0.49069759249687195,-7.9467926025390625
-6.124078273773193,-0.4884021580219269,-7.947344779968262
-6.047136306762695,-0.48614615201950073,-7.947888374328613
-5.970900058746338,-0.4839290678501129,-7.948428630828857
-5.895353317260742,-0.4817501902580261,-7.9489641189575195
-5.8204803466796875,-0.4796087443828583,-7.949492931365967
-5.746267795562744,-0.47750425338745117,-7.950019359588623
-5.672702312469482,-0.4754360318183899,-7.950541973114014
1.1167142391204834,-0.35109299421310425,-5.997861385345459
1.1390328407287598,-0.3466910123825073,-5.915782451629639
1.1608408689498901,-0.3424229323863983,-5.835941314697266
1.1820974349975586,-0.33826500177383423,-5.757932186126709
1.2028836011886597,-0.33423006534576416,-5.681975841522217
1.2231053113937378,-0.3302822411060333,-5.607463359832764
1.2429076433181763,-0.3264524042606354,-5.534918785095215
1.2623051404953003,-0.3227347731590271,-5.464244842529297
1.2811901569366455,-0.3190937042236328,-5.394837856292725
1.2997007369995117,-0.3155568838119507,-5.32716703414917
1.3177932500839233,-0.31210610270500183,-5.26092529296875
1.3354833126068115,-0.3087388277053833,-5.196069240570068
1.3528103828430176,-0.3054579794406891,-5.132648468017578
1.3697928190231323,-0.3022615909576416,-5.070629596710205
1.3864402770996094,-0.29914602637290955,-5.009951114654541
1.4026485681533813,-0.2960839569568634,-4.950156211853027
1.4185785055160522,-0.2931050956249237,-4.891740798950195
1.4341222047805786,-0.29018229246139526,-4.834252834320068
1.4493577480316162,-0.2873276174068451,-4.777892112731934
1.4643566608428955,-0.2845507264137268,-4.722820281982422
1.4790096282958984,-0.2818261981010437,-4.668612480163574
1.4933875799179077,-0.27916422486305237,-4.615438938140869
1.5075005292892456,-0.27656301856040955,-4.563269138336182
1.5213630199432373,-0.27402180433273315,-4.512089252471924
1.5350275039672852,-0.27154651284217834,-4.461996078491211
1.5484217405319214,-0.26912105083465576,-4.412723541259766
1.5615888833999634,-0.26675015687942505,-4.364348888397217
1.574537754058838,-0.2644323706626892,-4.316847324371338
1.5872762203216553,-0.2621663510799408,-4.270195484161377
1.5997530221939087,-0.25994113087654114,-4.224214553833008
1.6120367050170898,-0.25776559114456177,-4.17904806137085
1.624165654182434,-0.255643367767334,-4.134753704071045
1.6360715627670288,-0.2535613775253296,-4.091117858886719
1.6477468013763428,-0.2515164911746979,-4.048089981079102
1.661685585975647,-0.2498820424079895,-4.011663913726807
1.6862846612930298,-0.24988430738449097,-4.001428604125977
1.7153607606887817,-0.25054970383644104,-4.001633644104004
1.7445932626724243,-0.2512281537055969,-4.001840114593506
1.7739856243133545,-0.25191977620124817,-4.002047538757324
1.8035414218902588,-0.2526247501373291,-4.002255916595459
1.8332641124725342,-0.25334325432777405,-4.002465724945068
1.8631575107574463,-0.25407546758651733,-4.002676486968994
1.8932257890701294,-0.2548215687274933,-4.002889633178711
1.923471450805664,-0.2555816173553467,-4.0031023025512695
1.95389986038208,-0.25635600090026855,-4.003317356109619
1.9845143556594849,-0.2571447491645813,-4.003533363342285
2.015319347381592,-0.2579481899738312,-4.003751754760742
2.0463175773620605,-0.2587662935256958,-4.003969669342041
2.0775146484375,-0.2595994770526886,-4.004189491271973
2.108914375305176,-0.2604478895664215,-4.004411220550537
2.140521764755249,-0.26131173968315125,-4.004634380340576
2.1723403930664062,-0.2621912360191345,-4.00485897064209
2.2043750286102295,-0.26308661699295044,-4.005084991455078
2.236630439758301,-0.2639981210231781,-4.005312919616699
2.269111394882202,-0.26492592692375183,-4.005541801452637
2.3018229007720947,-0.2658703625202179,-4.005773067474365
2.3347694873809814,-0.2668316066265106,-4.00600528717041
2.3679559230804443,-0.2678098976612091,-4.0062384605407715
2.833578586578369,-0.3171839416027069,-4.727540016174316
2.9097673892974854,-0.3224177658557892,-4.787785053253174
2.921489715576172,-0.32048705220222473,-4.741278171539307
2.9331090450286865,-0.31859514117240906,-4.695380210876465
2.9446723461151123,-0.3167458772659302,-4.650145530700684
2.956120729446411,-0.314931720495224,-4.605460166931152
2.9673707485198975,-0.31314271688461304,-4.561176776885986
2.978566884994507,-0.311393141746521,-4.5175018310546875
2.9896209239959717,-0.3096727728843689,-4.474283695220947
3.0005085468292236,-0.30797818303108215,-4.431472301483154
3.0113041400909424,-0.3063161373138428,-4.389163017272949
3.021942615509033,-0.30467915534973145,-4.3472466468811035
3.032428741455078,-0.30306699872016907,-4.305717945098877
3.0428812503814697,-0.3014906346797943,-4.2647318840026855
3.053133487701416,-0.2999327480792999,-4.224040508270264
3.06335711479187,-0.29840949177742004,-4.183870792388916
3.0734000205993652,-0.2969052493572235,-4.144000053405762
3.083317995071411,-0.29542478919029236,-4.104495525360107
3.0931785106658936,-0.2939738929271698,-4.06543493270874
3.1029088497161865,-0.2925449311733246,-4.026710033416748
3.1306984424591064,-0.2928386926651001,-4.0116190910339355
3.1707191467285156,-0.2942740023136139,-4.01190185546875
3.2111353874206543,-0.29573458433151245,-4.012186527252197
3.251955509185791,-0.297220915555954,-4.0124735832214355
3.293191432952881,-0.2987337112426758,-4.012765407562256
3.3348493576049805,-0.30027326941490173,-4.013058662414551
3.376941204071045,-0.301840215921402,-4.013355731964111
3.419475793838501,-0.3034350872039795,-4.013655185699463
3.4624643325805664,-0.30505844950675964,-4.01395845413208
3.505917549133301,-0.3067109286785126,-4.014265537261963
3.549844264984131,-0.3083930015563965,-4.0145745277404785
3.594257354736328,-0.3101053535938263,-4.01488733291626
3.639169454574585,-0.3118487298488617,-4.015204429626465
3.6845903396606445,-0.31362366676330566,-4.015524864196777
3.7305328845977783,-0.3154308497905731,-4.0158491134643555
3.7770097255706787,-0.317270964384079,-4.016176700592041
3.8240339756011963,-0.3191448152065277,-4.01650857925415
8.301229476928711,-0.4902956187725067,-1.9176820516586304
8.301597595214844,-0.4896325469017029,-1.8641860485076904
8.301963806152344,-0.48898962140083313,-1.8108323812484741
8.302331924438477,-0.48836687207221985,-1.7576171159744263
8.30269718170166,-0.4877639412879944,-1.7045350074768066
8.30306339263916,-0.4871809184551239,-1.6515820026397705
8.303426742553711,-0.4866175055503845,-1.5987532138824463
8.303789138793945,-0.4860736131668091,-1.5460442304611206
8.304150581359863,-0.4855492413043976,-1.4934512376785278
8.304512023925781,-0.4850442409515381,-1.4409695863723755
8.3048734664917,-0.4845585823059082,-1.3885951042175293
8.305233001708984,-0.48409202694892883,-1.3363233804702759
8.30559253692627,-0.48364460468292236,-1.284150242805481
8.305950164794922,-0.4832161068916321,-1.2320712804794312
8.306309700012207,-0.48280665278434753,-1.1800830364227295
8.306665420532227,-0.4824158847332001,-1.1281803846359253
8.307023048400879,-0.4820440113544464,-1.0763599872589111
8.307378768920898,-0.48169076442718506,-1.0246174335479736
8.307735443115234,-0.4813562333583832,-0.9729488492012024
8.308090209960938,-0.4810401201248169,-0.921349823474884
8.30844497680664,-0.48074260354042053,-0.8698166608810425
8.308799743652344,-0.48046356439590454,-0.8183453679084778
8.30915355682373,-0.48020288348197937,-0.7669317722320557
8.3095064163208,-0.47996047139167786,-0.715571939945221
8.309860229492188,-0.47973644733428955,-0.664262056350708
8.310212135314941,-0.47953060269355774,-0.6129980683326721
8.310564041137695,-0.4793429970741272,-0.5617761611938477
8.310916900634766,-0.47917357087135315,-0.5105924010276794
8.31126880645752,-0.4790222942829132,-0.4594428837299347
8.311619758605957,-0.478889137506485,-0.4083237051963806
8.311971664428711,-0.4787741005420685,-0.3572310507297516
8.312322616577148,-0.4786771237850189,-0.30616098642349243
8.312673568725586,-0.47859814763069153,-0.25510966777801514
8.313024520874023,-0.4785372316837311,-0.20407329499721527
8.313375473022461,-0.4784943759441376,-0.15304797887802124
8.313725471496582,-0.47846952080726624,-0.10202988982200623
8.314077377319336,-0.47846272587776184,-0.051015179604291916
8.314428329467773,-0.4784739017486572,-5.090950710244491e-16
8.314778327941895,-0.4785030484199524,0.05101947858929634
8.315130233764648,-0.4785503149032593,0.10204712301492691
8.31548023223877,-0.47861552238464355,0.15308673679828644
8.31583023071289,-0.4786987602710724,0.20414216816425323
8.316181182861328,-0.47880011796951294,0.2552173435688019
8.316532135009766,-0.47891950607299805,0.3063160181045532
8.316885948181152,-0.4790571331977844,0.3574422299861908
8.31723690032959,-0.47921276092529297,0.4085996150970459
8.317587852478027,-0.4793865382671356,0.45979222655296326
8.317941665649414,-0.47957858443260193,0.511023998260498
8.318292617797852,-0.47978875041007996,0.562298595905304
8.318646430969238,-0.4800173044204712,0.6136202216148376
8.318998336791992,-0.48026400804519653,0.6649925708770752
8.319353103637695,-0.48052921891212463,0.7164198160171509
8.319705963134766,-0.4808126986026764,0.7679057121276855
8.320059776306152,-0.4811147153377533,0.8194543719291687
8.320415496826172,-0.48143526911735535,0.8710699081420898
8.578292846679688,-0.4966849386692047,0.9513147473335266
4.433018684387207,-0.43922632932662964,6.213070392608643
4.146450996398926,-0.41440460085868835,5.887507915496826
4.064132213592529,-0.409755140542984,5.846499443054199
3.9950623512268066,-0.4063861072063446,5.823051929473877
3.9326436519622803,-0.40365439653396606,5.808149337768555
3.875119924545288,-0.4013950824737549,5.799526691436768
3.819934368133545,-0.39935359358787537,5.793578624725342
3.7671735286712646,-0.39754483103752136,5.790561676025391
3.7166504859924316,-0.39595508575439453,5.790319919586182
3.668229341506958,-0.394575834274292,5.79276704788208
3.621835470199585,-0.3934048116207123,5.79790735244751
3.576599359512329,-0.39235249161720276,5.804453372955322
3.5326790809631348,-0.3914397358894348,5.812735557556152
3.281022548675537,-0.36726975440979004,5.474055767059326
2.996631622314453,-0.33891159296035767,5.069867134094238
2.95497727394104,-0.33771273493766785,5.070159912109375
2.913614273071289,-0.33653488755226135,5.0704498291015625
2.872537851333618,-0.33537787199020386,5.070738315582275
2.831740379333496,-0.33424121141433716,5.071023464202881
2.791217803955078,-0.3331248462200165,5.071308135986328
2.7509639263153076,-0.3320283889770508,5.071591854095459
2.7109713554382324,-0.33095139265060425,5.071870803833008
2.671236991882324,-0.32989388704299927,5.072149753570557
2.631753921508789,-0.3288554251194,5.072427272796631
2.5925166606903076,-0.32783570885658264,5.072701454162598
2.5535216331481934,-0.32683467864990234,5.072976112365723
2.5147616863250732,-0.3258519172668457,5.07324743270874
2.4762327671051025,-0.324887216091156,5.073517799377441
2.437930107116699,-0.3239404261112213,5.07378625869751
2.399848461151123,-0.32301121950149536,5.0740532875061035
2.3660314083099365,-0.3226514756679535,5.083015441894531
2.356369733810425,-0.3256324827671051,5.144533634185791
2.357046604156494,-0.33015507459640503,5.2305450439453125
2.3576512336730957,-0.33480480313301086,5.318775653839111
2.358339309692383,-0.33960992097854614,5.409682750701904
2.359125852584839,-0.3445795774459839,5.503424167633057
2.3599843978881836,-0.349717378616333,5.600068092346191
2.360626220703125,-0.35498782992362976,5.699056148529053
2.361466646194458,-0.3604606091976166,5.801516056060791
2.3622162342071533,-0.36610063910484314,5.906896591186523
2.3629190921783447,-0.3719230592250824,6.015450954437256
2.3639719486236572,-0.3780004680156708,6.128366947174072
2.3647680282592773,-0.3842470943927765,6.244268417358398
2.36575984954834,-0.39074650406837463,6.3645243644714355
2.3666539192199707,-0.3974626362323761,6.488560676574707
2.3676154613494873,-0.40443533658981323,6.617042064666748
2.3684730529785156,-0.41164880990982056,6.749722480773926
2.369544506072998,-0.41917264461517334,6.887758255004883
2.370631217956543,-0.4269885718822479,7.0308661460876465
2.371814489364624,-0.4351283013820648,7.179584980010986
2.373047113418579,-0.4436020851135254,7.334100246429443
2.374152183532715,-0.4523961544036865,7.494202136993408
2.3754405975341797,-0.46159064769744873,7.661233425140381
2.376795530319214,-0.4711873233318329,7.835245132446289
-7.0017523765563965,-0.4971672594547272,5.060861587524414
-6.975014686584473,-0.4930911660194397,4.976665019989014
-6.956164360046387,-0.4896242022514343,4.899083614349365
-6.940670967102051,-0.4864407479763031,4.824734210968018
-6.926567077636719,-0.48339954018592834,4.752159118652344
-6.915209770202637,-0.4805928170681,4.682224273681641
-6.907715320587158,-0.4780946969985962,4.6155877113342285
-6.900592803955078,-0.4756605327129364,4.549832820892334
-6.893510818481445,-0.4732666313648224,4.484720706939697
-6.886535167694092,-0.470916748046875,4.420281410217285
-6.879597187042236,-0.46860557794570923,4.356456756591797
-6.872746467590332,-0.4663357436656952,4.2932658195495605
-6.865965843200684,-0.464105486869812,4.23068380355835
-6.860705852508545,-0.4620118737220764,4.169580936431885
-6.858276844024658,-0.46014103293418884,4.110692977905273
-6.857055187225342,-0.45838192105293274,4.052979946136475
-6.856103897094727,-0.45667070150375366,3.995856285095215
-6.856064319610596,-0.4550493359565735,3.9396755695343018
-6.858889579772949,-0.4536459147930145,3.8855130672454834
-6.862923622131348,-0.452348917722702,3.8323659896850586
-6.8669538497924805,-0.45107749104499817,3.7795307636260986
-6.870952129364014,-0.44982942938804626,3.7269840240478516
-6.874927520751953,-0.4486050605773926,3.674725294113159
-6.878904342651367,-0.447405606508255,3.622760057449341
-6.882828712463379,-0.4462273120880127,3.571053981781006
-6.886752128601074,-0.4450731873512268,3.519627571105957
-6.891736030578613,-0.44401124119758606,3.469008445739746
-6.897931098937988,-0.4430503249168396,3.4192402362823486
-6.90450382232666,-0.4421360492706299,3.369882583618164
-6.911242961883545,-0.44125446677207947,3.320819139480591
-6.918875217437744,-0.4404514729976654,3.2723841667175293
-6.92692232131958,-0.4396960139274597,3.2243294715881348
-6.934961795806885,-0.43896088004112244,3.1764461994171143
-6.942966461181641,-0.43824413418769836,3.1287171840667725
-6.951032638549805,-0.43755167722702026,3.0811808109283447
-6.961569786071777,-0.4370345175266266,3.0348808765411377
-6.972412109375,-0.4365556240081787,2.9888298511505127
-6.98321533203125,-0.4360932409763336,2.94287109375
-6.994012832641602,-0.43564921617507935,2.89701509475708
-7.004807472229004,-0.43522363901138306,2.851257801055908
-7.015562057495117,-0.43481406569480896,2.8055808544158936
-7.026374340057373,-0.43442636728286743,2.7600181102752686
-7.0389556884765625,-0.43416598439216614,2.7152247428894043
-7.051629066467285,-0.43392878770828247,2.6705236434936523
-7.064352035522461,-0.43371206521987915,2.6258933544158936
-7.0772786140441895,-0.43352505564689636,2.5813844203948975
-7.091116428375244,-0.4334109127521515,2.5372421741485596
-7.1054534912109375,-0.43334394693374634,2.4932987689971924
-7.119748592376709,-0.4332910180091858,2.449354410171509
-7.134056568145752,-0.4332554042339325,2.4054245948791504
-7.148367404937744,-0.43323633074760437,2.361501455307007
-7.162685394287109,-0.4332340657711029,2.3175835609436035
-7.177007675170898,-0.433248370885849,2.273665428161621
-7.191821098327637,-0.433308482170105,2.2298946380615234
-7.207882881164551,-0.43345969915390015,2.1864874362945557
-7.225033760070801,-0.4336920380592346,2.1433677673339844
-7.242375373840332,-0.4339512586593628,2.100250005722046
-7.259797096252441,-0.43423062562942505,2.057095527648926
-7.277177810668945,-0.43452295660972595,2.013866424560547
-7.29464054107666,-0.4348354637622833,1.9705928564071655
-7.312153339385986,-0.43516629934310913,1.9272618293762207
-7.329821586608887,-0.43552166223526,1.8838961124420166
-7.3480424880981445,-0.4359250068664551,1.8405888080596924
-7.367315292358398,-0.43640586733818054,1.797447919845581
-7.3866868019104,-0.43690750002861023,1.7542232275009155
-7.406274318695068,-0.43743687868118286,1.7109369039535522
-7.426970958709717,-0.4380466341972351,1.6677820682525635
-7.44859504699707,-0.4387257993221283,1.6246947050094604
-7.4702839851379395,-0.43942344188690186,1.58147132396698
-7.49214506149292,-0.44014590978622437,1.538129448890686
-7.514052391052246,-0.44088584184646606,1.4946379661560059
-7.53608512878418,-0.44164788722991943,1.4510082006454468
-7.5582780838012695,-0.4424341022968292,1.4072409868240356
-7.582893371582031,-0.4433768391609192,1.3637374639511108
-7.608530044555664,-0.4443938136100769,1.3202052116394043
-7.634241104125977,-0.4454296827316284,1.2764637470245361
-7.660140037536621,-0.4464910924434662,1.2325268983840942
-7.686306953430176,-0.447582870721817,1.1884008646011353
-7.713937282562256,-0.448774516582489,1.1442545652389526
-7.74204158782959,-0.4500083923339844,1.0999170541763306
-7.7710347175598145,-0.4513087272644043,1.0554330348968506
-7.8021368980407715,-0.4527462422847748,1.0109407901763916
-7.834012508392334,-0.45424336194992065,0.9662333130836487
-7.866296768188477,-0.45577895641326904,0.9212504029273987
-7.898742198944092,-0.457338809967041,0.8759539723396301
-7.931446075439453,-0.4589287340641022,0.8303484320640564
-7.964301586151123,-0.4605426490306854,0.7844152450561523
-7.997546195983887,-0.46219444274902344,0.7381705045700073
-8.031394958496094,-0.46389663219451904,0.6916223764419556
-8.068872451782227,-0.4658240079879761,0.6449983716011047
-8.109277725219727,-0.4679359197616577,0.5981762409210205
-8.150435447692871,-0.47010695934295654,0.5509517788887024
-8.193548202514648,-0.4724065661430359,0.5033817291259766
-8.242105484008789,-0.475036084651947,0.45561960339546204
-8.292208671569824,-0.47777071595191956,0.40737009048461914
-8.343145370483398,-0.4805696904659271,0.35857081413269043
-8.394502639770508,-0.4834095537662506,0.3091878592967987
-8.446496963500977,-0.4863029420375824,0.2592166066169739
-8.499320030212402,-0.48926132917404175,0.20864661037921906
-8.552882194519043,-0.49227970838546753,0.15745726227760315
-8.60894775390625,-0.49546003341674805,0.10565298795700073
-8.674310684204102,-0.49919360876083374,0.0532255694270134
1.116891860961914,-0.4053199291229248,-5.998815536499023
1.139204978942871,-0.4002348482608795,-5.916676998138428
1.1610071659088135,-0.39530450105667114,-5.836777210235596
1.182263970375061,-0.39050349593162537,-5.758743762969971
1.20305335521698,-0.3858455717563629,-5.682778358459473
1.2232773303985596,-0.38128790259361267,-5.608252048492432
1.2430821657180786,-0.37686651945114136,-5.535696029663086
1.2624824047088623,-0.3725747764110565,-5.465012073516846
1.2813704013824463,-0.36837151646614075,-5.395596981048584
1.2998840808868408,-0.3642886281013489,-5.327918529510498
1.317995309829712,-0.3603093922138214,-5.26173210144043
1.3357090950012207,-0.3564276397228241,-5.1969475746154785
1.3530447483062744,-0.3526414930820465,-5.133537292480469
1.3700321912765503,-0.34895190596580505,-5.071516036987305
1.3866827487945557,-0.3453550934791565,-5.010827541351318
1.4028948545455933,-0.34182026982307434,-4.951025009155273
1.418832778930664,-0.3383824825286865,-4.892617702484131
1.4343868494033813,-0.33500999212265015,-4.835144996643066
1.4496279954910278,-0.331714928150177,-4.778782844543457
1.464629888534546,-0.3285090923309326,-4.723701000213623
1.4792852401733398,-0.3253636062145233,-4.669482707977295
1.4936652183532715,-0.3222902715206146,-4.616296768188477
1.5077804327011108,-0.31928715109825134,-4.564116477966309
1.5216457843780518,-0.3163534104824066,-4.512928009033203
1.5353180170059204,-0.31349679827690125,-4.462840557098389
1.548714518547058,-0.3106965720653534,-4.413558006286621
1.5618840456008911,-0.3079593777656555,-4.36517333984375
1.5748348236083984,-0.30528345704078674,-4.317661762237549
1.5875753164291382,-0.3026672899723053,-4.271000385284424
1.6000547409057617,-0.30009832978248596,-4.225010871887207
1.6123394966125488,-0.29758647084236145,-4.179832935333252
1.6244665384292603,-0.2951356768608093,-4.135519981384277
1.6363699436187744,-0.2927311956882477,-4.091864109039307
1.6480402946472168,-0.2903691828250885,-4.048811435699463
1.6619762182235718,-0.28848132491111755,-4.012365341186523
1.6865800619125366,-0.28848400712013245,-4.002129554748535
1.7156612873077393,-0.2892521917819977,-4.0023345947265625
1.7448989152908325,-0.2900354564189911,-4.0025410652160645
1.7742961645126343,-0.29083386063575745,-4.002748012542725
1.8038572072982788,-0.2916477620601654,-4.002956867218018
1.8335853815078735,-0.2924772799015045,-4.003167152404785
1.8634839057922363,-0.2933225631713867,-4.003377914428711
1.8935573101043701,-0.2941839098930359,-4.0035905838012695
1.9238086938858032,-0.2950614392757416,-4.0038042068481445
1.9542423486709595,-0.2959554195404053,-4.004018783569336
1.984862208366394,-0.2968660295009613,-4.00423526763916
2.015672206878662,-0.29779350757598877,-4.004453182220459
2.0466761589050293,-0.298738032579422,-4.004671096801758
2.077878713607788,-0.29969993233680725,-4.004891395568848
2.1092846393585205,-0.300679475069046,-4.0051140785217285
2.140897274017334,-0.30167675018310547,-4.005337238311768
2.1727211475372314,-0.3026920557022095,-4.005561351776123
2.2047617435455322,-0.3037257790565491,-4.0057878494262695
2.237022876739502,-0.3047780394554138,-4.006015300750732
2.2695095539093018,-0.30584919452667236,-4.006244659423828
2.302227020263672,-0.30693957209587097,-4.006475925445557
2.335179090499878,-0.3080492913722992,-4.006708145141602
2.3683719635009766,-0.30917876958847046,-4.006942272186279
2.8340587615966797,-0.36617735028266907,-4.728341102600098
2.9102580547332764,-0.3722193241119385,-4.788592338562012
2.921982765197754,-0.36999043822288513,-4.7420783042907715
2.9336040019989014,-0.3678062856197357,-4.696172714233398
2.945169448852539,-0.36567139625549316,-4.650930881500244
2.956618070602417,-0.3635767996311188,-4.606235027313232
2.9678688049316406,-0.3615112900733948,-4.561942100524902
2.9790656566619873,-0.35949137806892395,-4.518258094787598
2.9901204109191895,-0.3575051426887512,-4.47503137588501
3.000995635986328,-0.35554710030555725,-4.432191371917725
3.011765718460083,-0.35362517833709717,-4.389835834503174
3.0223968029022217,-0.35173431038856506,-4.347899913787842
3.032885789871216,-0.34987327456474304,-4.306366920471191
3.043339490890503,-0.3480534553527832,-4.265374183654785
3.053593873977661,-0.34625500440597534,-4.224677562713623
3.0638201236724854,-0.34449663758277893,-4.184503078460693
3.0738770961761475,-0.34276145696640015,-4.144643783569336
3.0838117599487305,-0.3410540223121643,-4.1051530838012695
3.093677520751953,-0.3393794596195221,-4.0660905838012695
3.103419780731201,-0.33773091435432434,-4.02737283706665
3.1312501430511475,-0.3380739390850067,-4.012326240539551
3.171278238296509,-0.33973097801208496,-4.012609004974365
3.2117016315460205,-0.34141719341278076,-4.012894153594971
3.2525293827056885,-0.3431331515312195,-4.013181209564209
3.2937731742858887,-0.34487974643707275,-4.013474464416504
3.3354387283325195,-0.3466570973396301,-4.013767719268799
3.377537488937378,-0.34846606850624084,-4.014064311981201
3.4200804233551025,-0.3503073751926422,-4.014364719390869
3.463076591491699,-0.3521815240383148,-4.0146684646606445
3.5065369606018066,-0.3540892004966736,-4.014974594116211
3.5504720211029053,-0.3560311496257782,-4.015284538269043
3.59489369392395,-0.35800808668136597,-4.015597820281982
3.639813184738159,-0.3600207567214966,-4.0159149169921875
3.6852424144744873,-0.36206987500190735,-4.016235828399658
3.7311930656433105,-0.36415621638298035,-4.016559600830078
3.7776780128479004,-0.36628058552742004,-4.016887187957764
3.8247108459472656,-0.36844390630722046,-4.017219543457031
4.34232234954834,-0.49661242961883545,6.08595609664917
4.1462225914001465,-0.47830766439437866,5.887183666229248
4.063662528991699,-0.47291263937950134,5.845823764801025
3.995845079421997,-0.4691704213619232,5.824193000793457
3.932100772857666,-0.46586108207702637,5.807347297668457
3.8750123977661133,-0.46330469846725464,5.799365997314453
3.8211028575897217,-0.46110212802886963,5.795350551605225
3.7678771018981934,-0.4589589834213257,5.791642665863037
3.7174055576324463,-0.45713120698928833,5.791496276855469
3.669504404067993,-0.4556046426296234,5.794780731201172
3.622138261795044,-0.4541325867176056,5.798391819000244
3.577120542526245,-0.4529459476470947,5.805299282073975
3.5336086750030518,-0.45194530487060547,5.814265251159668
3.281428098678589,-0.423980176448822,5.474731922149658
2.997112274169922,-0.3912575840950012,5.070680141448975
2.955451250076294,-0.38987356424331665,5.0709733963012695
2.9140820503234863,-0.38851386308670044,5.071263790130615
2.8729987144470215,-0.38717809319496155,5.07155179977417
2.8321950435638428,-0.3858659267425537,5.071837425231934
2.79166579246521,-0.38457709550857544,5.072122097015381
2.7514052391052246,-0.38331127166748047,5.0724053382873535
2.71140718460083,-0.38206806778907776,5.072685718536377
2.671665906906128,-0.38084715604782104,5.072964668273926
2.6321768760681152,-0.3796483278274536,5.0732421875
2.592933416366577,-0.37847113609313965,5.073516845703125
2.553931713104248,-0.3773154616355896,5.073791027069092
2.5151658058166504,-0.3761809170246124,5.074062824249268
2.476630926132202,-0.37506726384162903,5.074333190917969
2.438321828842163,-0.37397417426109314,5.074601650238037
2.4002339839935303,-0.37290143966674805,5.074868202209473
2.3664135932922363,-0.3724864423274994,5.083836078643799
2.356755256652832,-0.37592872977256775,5.1453752517700195
2.3574366569519043,-0.3811505138874054,5.231410026550293
2.358043909072876,-0.3865188956260681,5.319661617279053
2.358731746673584,-0.3920661509037018,5.41058349609375
2.3595170974731445,-0.3978031873703003,5.504336833953857
2.3603711128234863,-0.4037337601184845,5.600985527038574
2.3610129356384277,-0.40981823205947876,5.6999897956848145
2.361855983734131,-0.416136771440506,5.8024725914001465
2.362617015838623,-0.42264997959136963,5.907898426055908
2.363321542739868,-0.42937204241752625,6.016475200653076
2.3643696308135986,-0.4363872706890106,6.129397869110107
2.365152597427368,-0.4435963034629822,6.245283603668213
2.3661417961120605,-0.45109906792640686,6.365551471710205
2.367056131362915,-0.45885640382766724,6.489663124084473
2.368048667907715,-0.46691223978996277,6.618252277374268
2.3689146041870117,-0.47524169087409973,6.750980854034424
2.3699872493743896,-0.48392802476882935,6.889045238494873
2.3710744380950928,-0.4929514527320862,7.0321807861328125
1.116650938987732,-0.45945554971694946,-5.99752140045166
1.1389544010162354,-0.4536893665790558,-5.915375232696533
1.1607469320297241,-0.44809862971305847,-5.835468769073486
1.1819971799850464,-0.4426558315753937,-5.757444381713867
1.202782392501831,-0.4373759627342224,-5.681498050689697
1.22300124168396,-0.43220943212509155,-5.6069865226745605
1.2428011894226074,-0.4271974265575409,-5.534444808959961
1.2621972560882568,-0.42233261466026306,-5.463778018951416
1.2810814380645752,-0.4175681173801422,-5.394380569458008
1.2995911836624146,-0.41294002532958984,-5.326717853546143
1.3177071809768677,-0.40843212604522705,-5.260581970214844
1.335428237915039,-0.4040353000164032,-5.195855140686035
1.3527628183364868,-0.3997441828250885,-5.132467746734619
1.369746446609497,-0.39556169509887695,-5.070457935333252
1.386393427848816,-0.39148443937301636,-5.009782314300537
1.4026027917861938,-0.3874776065349579,-4.949994087219238
1.4185396432876587,-0.3835812509059906,-4.89160680770874
1.4340944290161133,-0.3797593116760254,-4.834158897399902
1.4493337869644165,-0.3760244846343994,-4.777812957763672
1.4643325805664062,-0.37239041924476624,-4.722742557525635
1.478985071182251,-0.3688247799873352,-4.668535232543945
1.4933621883392334,-0.365340918302536,-4.615360260009766
1.507474422454834,-0.36193662881851196,-4.563190460205078
1.5213369131088257,-0.35861098766326904,-4.512012004852295
1.5350087881088257,-0.3553733825683594,-4.461941719055176
1.5484025478363037,-0.35219910740852356,-4.4126691818237305
1.5615694522857666,-0.34909623861312866,-4.364294052124023
1.5745176076889038,-0.34606289863586426,-4.3167924880981445
1.5872552394866943,-0.34309718012809753,-4.270139217376709
1.599731683731079,-0.3401849865913391,-4.22415828704834
1.6120132207870483,-0.337337464094162,-4.1789870262146
1.6241347789764404,-0.3345586359500885,-4.134675025939941
1.636032223701477,-0.33183225989341736,-4.091019630432129
1.6476963758468628,-0.32915398478507996,-4.047966003417969
1.6616289615631104,-0.32701388001441956,-4.011527061462402
1.6862285137176514,-0.3270170986652374,-4.001295566558838
1.715303659439087,-0.3278878927230835,-4.001500606536865
1.744535207748413,-0.3287757337093353,-4.001706600189209
1.7739264965057373,-0.329680860042572,-4.001914024353027
1.8034814596176147,-0.3306034803390503,-4.0021233558654785
1.8332034349441528,-0.33154380321502686,-4.002333164215088
1.8630961179733276,-0.3325020670890808,-4.00254487991333
1.893162727355957,-0.3334783613681793,-4.002756118774414
1.9234081506729126,-0.3344731628894806,-4.002970218658447
1.9538354873657227,-0.3354865312576294,-4.003185272216797
1.9844486713409424,-0.3365187346935272,-4.003401279449463
2.0152525901794434,-0.3375701606273651,-4.003619194030762
2.0462498664855957,-0.33864080905914307,-4.0038371086120605
2.077446222305298,-0.33973121643066406,-4.004057884216309
2.1088452339172363,-0.34084153175354004,-4.004279613494873
2.140451431274414,-0.3419720530509949,-4.004502773284912
2.172268867492676,-0.34312301874160767,-4.004727363586426
2.2043025493621826,-0.3442947566509247,-4.004953384399414
2.2365572452545166,-0.34548765420913696,-4.005181789398193
2.2690372467041016,-0.34670189023017883,-4.005411148071289
2.3017475605010986,-0.34793782234191895,-4.005641937255859
2.334693193435669,-0.34919583797454834,-4.0058746337890625
2.3678786754608154,-0.35047611594200134,-4.006107807159424
2.8334600925445557,-0.41508686542510986,-4.72734260559082
2.909642219543457,-0.42193567752838135,-4.78757905960083
2.9213640689849854,-0.41940900683403015,-4.741074085235596
2.932983636856079,-0.41693323850631714,-4.695179462432861
2.9445457458496094,-0.41451311111450195,-4.6499457359313965
2.9559926986694336,-0.41213881969451904,-4.605260372161865
2.967240333557129,-0.409797340631485,-4.560976028442383
2.978433609008789,-0.4075074791908264,-4.517299652099609
2.9894845485687256,-0.4052557349205017,-4.4740800857543945
3.000338077545166,-0.403033584356308,-4.431220531463623
3.0111007690429688,-0.4008542597293854,-4.388866901397705
3.0217301845550537,-0.3987109661102295,-4.346940994262695
3.0322160720825195,-0.39660125970840454,-4.305416107177734
3.042668342590332,-0.3945384919643402,-4.264433860778809
3.05292010307312,-0.3924998342990875,-4.223745346069336
3.0631444454193115,-0.3905066251754761,-4.18358039855957
3.0732007026672363,-0.3885399103164673,-4.143731594085693
3.083144187927246,-0.386605829000473,-4.104264259338379
3.0930113792419434,-0.384708046913147,-4.065215110778809
3.102755308151245,-0.38283976912498474,-4.026510715484619
3.1305999755859375,-0.38323110342025757,-4.01149320602417
3.1706197261810303,-0.38510948419570923,-4.011775970458984
3.2110347747802734,-0.38702091574668884,-4.01206111907959
3.2518539428710938,-0.38896608352661133,-4.012348175048828
3.293088912963867,-0.3909459412097931,-4.012640476226807
3.3347456455230713,-0.39296066761016846,-4.012933731079102
3.3768362998962402,-0.3950113356113434,-4.013230800628662
3.419370651245117,-0.3970986008644104,-4.013531684875488
3.462357521057129,-0.39922305941581726,-4.013834476470947
3.5058095455169678,-0.40138566493988037,-4.014142036437988
