1.643926739692688,-0.058733776211738586,-4.11076021194458
1.6555567979812622,-0.058256544172763824,-4.067277431488037
1.6670204401016235,-0.0577898807823658,-4.024543285369873
1.6848920583724976,-0.057557884603738785,-3.998124122619629
1.7124156951904297,-0.057659685611724854,-3.9947633743286133
1.7415525913238525,-0.057814307510852814,-3.9948651790618896
1.7708481550216675,-0.057971980422735214,-3.994969606399536
1.8003040552139282,-0.05813267454504967,-3.99507212638855
1.8299249410629272,-0.05829646810889244,-3.99517560005188
1.8597147464752197,-0.058463405817747116,-3.9952802658081055
1.8896762132644653,-0.05863349884748459,-3.995384693145752
1.9198144674301147,-0.05880683287978172,-3.9954912662506104
1.950131893157959,-0.058983396738767624,-3.9955968856811523
1.9806331396102905,-0.05916326493024826,-3.99570369720459
2.0113227367401123,-0.05934648960828781,-3.995812177658081
2.042203187942505,-0.059533074498176575,-3.9959192276000977
2.0732805728912354,-0.05972311273217201,-3.9960286617279053
2.104557752609253,-0.059916622936725616,-3.996138334274292
2.1360394954681396,-0.06011366844177246,-3.996248960494995
2.1677298545837402,-0.060314275324344635,-3.996359348297119
2.199634075164795,-0.060518525540828705,-3.9964711666107178
2.2317559719085693,-0.06072645261883736,-3.9965834617614746
2.264101266860962,-0.06093813106417656,-3.9966976642608643
2.296673059463501,-0.06115357577800751,-3.9968109130859375
2.3294782638549805,-0.061372894793748856,-3.996926784515381
2.3625199794769287,-0.0615960955619812,-3.997041940689087
2.3958046436309814,-0.061823274940252304,-3.9971587657928467
2.9202985763549805,-0.07459549605846405,-4.805113315582275
2.9320127964019775,-0.07414752244949341,-4.758355617523193
2.943495512008667,-0.07370534539222717,-4.71200704574585
2.9549832344055176,-0.0732746422290802,-4.666428565979004
2.9663543701171875,-0.07285206764936447,-4.621403217315674
2.977525234222412,-0.07243534922599792,-4.576785087585449
2.988640069961548,-0.0720277652144432,-4.532779216766357
2.9996140003204346,-0.07162702828645706,-4.489239692687988
3.0104217529296875,-0.07123231142759323,-4.446113109588623
3.02115797996521,-0.07084567844867706,-4.4035258293151855
3.031764507293701,-0.07046552002429962,-4.3613762855529785
3.0422279834747314,-0.0700913518667221,-4.319632053375244
3.0526421070098877,-0.06972513347864151,-4.278412342071533
3.062808036804199,-0.06936214119195938,-4.237425804138184
3.072906732559204,-0.06900634616613388,-4.196913242340088
3.082831382751465,-0.06865516304969788,-4.156717300415039
3.0926473140716553,-0.06830990314483643,-4.116914749145508
3.1024115085601807,-0.06797165423631668,-4.077569961547852
3.1120505332946777,-0.06763864308595657,-4.038573265075684
3.126157283782959,-0.06740974634885788,-4.005800247192383
3.1611855030059814,-0.06763456761837006,-3.9998388290405273
3.2013652324676514,-0.06796782463788986,-3.999979257583618
3.2419445514678955,-0.06830696761608124,-4.000121593475342
3.282933235168457,-0.06865213066339493,-4.000266075134277
3.324338674545288,-0.0690033808350563,-4.000410556793213
3.3661718368530273,-0.0693608745932579,-4.000556468963623
3.408442497253418,-0.06972473114728928,-4.000704288482666
3.4511606693267822,-0.07009508460760117,-4.000854015350342
3.4943363666534424,-0.07047205418348312,-4.001005172729492
3.537980794906616,-0.07085578888654709,-4.001158237457275
3.5821046829223633,-0.07124641537666321,-4.001312255859375
3.6267199516296387,-0.07164409011602402,-4.001468658447266
3.671837091445923,-0.07204894721508026,-4.001626491546631
3.7174689769744873,-0.07246115803718567,-4.001785755157471
3.7636280059814453,-0.07288087159395218,-4.001947402954102
3.8103268146514893,-0.07330826669931412,-4.002111434936523
17.270803451538086,-0.33015769720077515,-17.918636322021484
22.10173988342285,-0.30093082785606384,-5.105762958526611
8.3098726272583,-0.11298678070306778,-1.8660444021224976
8.310059547424316,-0.11283597350120544,-1.8125982284545898
8.310245513916016,-0.1126898005604744,-1.759292483329773
8.310429573059082,-0.11254820972681046,-1.7061222791671753
8.310612678527832,-0.11241120845079422,-1.6530835628509521
8.310794830322266,-0.11227875202894211,-1.6001718044281006
8.310977935791016,-0.11215084046125412,-1.5473828315734863
8.311161994934082,-0.11202745139598846,-1.4947121143341064
8.3113431930542,-0.11190851032733917,-1.442154884338379
8.311524391174316,-0.11179403215646744,-1.3897072076797485
8.31170654296875,-0.11168399453163147,-1.337364912033081
8.311887741088867,-0.11157837510108948,-1.285123586654663
8.312068939208984,-0.11147714406251907,-1.2329789400100708
8.312248229980469,-0.11138027906417847,-1.18092679977417
8.312427520751953,-0.11128776520490646,-1.1289629936218262
8.312606811523438,-0.11119958758354187,-1.0770835876464844
8.312788009643555,-0.11111575365066528,-1.0252845287322998
8.312966346740723,-0.11103621125221252,-0.9735614657402039
8.313146591186523,-0.1109609603881836,-0.9219105839729309
8.313324928283691,-0.1108899787068367,-0.8703275918960571
8.313502311706543,-0.11082323640584946,-0.8188084959983826
8.313681602478027,-0.11076077818870544,-0.7673496603965759
8.313858032226562,-0.1107025220990181,-0.7159466743469238
8.31403636932373,-0.1106485053896904,-0.664595901966095
8.314212799072266,-0.11059868335723877,-0.6132931709289551
8.314390182495117,-0.11055309325456619,-0.5620347857475281
8.314567565917969,-0.11051169782876968,-0.5108166933059692
8.31474494934082,-0.11047449707984924,-0.45963507890701294
8.314922332763672,-0.11044146120548248,-0.40848594903945923
8.31509780883789,-0.11041259765625,-0.3573653995990753
8.315276145935059,-0.11038792878389359,-0.3062697649002075
8.315450668334961,-0.11036738008260727,-0.25519490242004395
8.315629005432129,-0.11035103350877762,-0.20413722097873688
8.315804481506348,-0.11033882945775986,-0.15309269726276398
8.315980911254883,-0.11033078283071518,-0.1020575612783432
8.316158294677734,-0.11032690107822418,-0.051027946174144745
8.316335678100586,-0.11032717674970627,-5.092118556920518e-16
8.316510200500488,-0.11033158004283905,0.05103011056780815
8.316686630249023,-0.11034014075994492,0.10206621885299683
8.316862106323242,-0.11035285890102386,0.15311217308044434
8.317037582397461,-0.1103697344660759,0.2041718065738678
8.317214965820312,-0.1103907972574234,0.2552490532398224
8.317391395568848,-0.11041601002216339,0.30634766817092896
8.317566871643066,-0.11044537276029587,0.3574714958667755
8.317744255065918,-0.1104789450764656,0.4086245894432068
8.317919731140137,-0.11051667481660843,0.4598105549812317
8.318097114562988,-0.11055860668420792,0.5110335350036621
8.31827449798584,-0.11060474812984467,0.5622973442077637
8.318450927734375,-0.11065506935119629,0.613605797290802
8.318628311157227,-0.11070961505174637,0.6649629473686218
8.318807601928711,-0.11076842248439789,0.7163728475570679
8.318984985351562,-0.11083143204450607,0.7678391933441162
8.319162368774414,-0.11089868098497391,0.819365918636322
8.31933879852295,-0.11097019910812378,0.8709571957588196
8.319517135620117,-0.11104600131511688,0.9226171374320984
10.268163681030273,-0.13715174794197083,1.202541708946228
4.189079284667969,-0.09651421010494232,5.948035717010498
4.08971643447876,-0.09505487233400345,5.883303642272949
4.015523433685303,-0.09416338801383972,5.852875232696533
3.9487555027008057,-0.09343507885932922,5.831944942474365
3.889474391937256,-0.09287577867507935,5.821009635925293
3.8325326442718506,-0.09236601740121841,5.812685966491699
3.7788772583007812,-0.09193013608455658,5.80855131149292
3.7270731925964355,-0.09153491258621216,5.806558132171631
3.6776068210601807,-0.09119351208209991,5.807575702667236
3.6297948360443115,-0.0908903256058693,5.8106489181518555
3.5838704109191895,-0.09063231199979782,5.816253662109375
3.5391793251037598,-0.09040406346321106,5.823431491851807
3.4960343837738037,-0.09021448343992233,5.832780838012695
3.088149309158325,-0.08051484823226929,5.224701404571533
2.9627578258514404,-0.07805740088224411,5.083509922027588
2.921201705932617,-0.07778291404247284,5.083653926849365
2.8799355030059814,-0.07751326262950897,5.083796977996826
2.838951826095581,-0.07724835723638535,5.083937644958496
2.7982473373413086,-0.07698817551136017,5.084080219268799
2.7578139305114746,-0.07673259824514389,5.084219932556152
2.717646598815918,-0.07648159563541412,5.084359169006348
2.677739143371582,-0.07623506337404251,5.08449649810791
2.638087749481201,-0.07599300146102905,5.084634780883789
2.598684549331665,-0.075755275785923,5.0847697257995605
2.5595264434814453,-0.07552190124988556,5.084905624389648
2.5206072330474854,-0.07529276609420776,5.08504056930542
2.481921672821045,-0.07506783306598663,5.085173606872559
2.4434661865234375,-0.07484707981348038,5.085308074951172
2.40523362159729,-0.07463038712739944,5.085439205169678
2.3672211170196533,-0.07441776245832443,5.0855712890625
2.34110951423645,-0.07458142191171646,5.1112165451049805
2.338886022567749,-0.075523741543293,5.190244197845459
2.339174270629883,-0.07657717913389206,5.277092456817627
2.3395352363586426,-0.0776655301451683,5.366549015045166
2.3399746417999268,-0.0787905603647232,5.458747386932373
2.3404695987701416,-0.07995317876338959,5.553761005401611
2.340747356414795,-0.08114568144083023,5.651064395904541
2.341217041015625,-0.0823838859796524,5.751767635345459
2.341583013534546,-0.08365945518016815,5.855301380157471
2.3418805599212646,-0.0849754810333252,5.9618916511535645
2.342515468597412,-0.08634896576404572,6.072742938995361
2.3429086208343506,-0.08776108920574188,6.18654727935791
2.3434927463531494,-0.08923036605119705,6.304619312286377
2.3439717292785645,-0.09074831008911133,6.426373481750488
2.3445065021514893,-0.09232387691736221,6.552456855773926
2.3449103832244873,-0.0939527153968811,6.682573318481445
2.3454558849334717,-0.09564889967441559,6.817737579345703
2.3459832668304443,-0.09740961343050003,6.957765102386475
2.346613883972168,-0.09924368560314178,7.103301525115967
2.3472788333892822,-0.10115248709917068,7.254461765289307
2.347787380218506,-0.10313208401203156,7.410979747772217
2.3485071659088135,-0.1052033007144928,7.574368476867676
2.3492369651794434,-0.10736265033483505,7.744396686553955
2.3497872352600098,-0.10960691422224045,7.920848846435547
-7.794455528259277,-0.1344471424818039,6.4771881103515625
-7.634477138519287,-0.13102206587791443,6.265453338623047
-7.5196123123168945,-0.1284065842628479,6.094356536865234
-7.40821647644043,-0.12588074803352356,5.929132461547852
-7.315778732299805,-0.12370487302541733,5.781866550445557
-7.25913667678833,-0.12215700000524521,5.665085792541504
-7.214851379394531,-0.12083543092012405,5.559632301330566
-7.175036430358887,-0.11960533261299133,5.459113121032715
-7.136030197143555,-0.1184045746922493,5.360622406005859
-7.0978474617004395,-0.11723286658525467,5.264122486114502
-7.060406684875488,-0.1160883754491806,5.169506549835205
-7.029970169067383,-0.11507312953472137,5.081257343292236
-7.00761079788208,-0.11420278996229172,4.999922275543213
-6.992080211639404,-0.11345512419939041,4.924378395080566
-6.977031707763672,-0.11272592842578888,4.850009918212891
-6.96221399307251,-0.11201087385416031,4.776615619659424
-6.947518348693848,-0.11130797117948532,4.704100131988525
-6.93305778503418,-0.11061879992485046,4.632521152496338
-6.918772220611572,-0.10994219034910202,4.561819076538086
-6.9061150550842285,-0.10930093377828598,4.492920875549316
-6.89724588394165,-0.10872858017683029,4.427156448364258
-6.891090393066406,-0.10820741206407547,4.363734722137451
-6.887316703796387,-0.10773159563541412,4.302367687225342
-6.885854244232178,-0.10729946196079254,4.242938995361328
-6.884415626525879,-0.106874980032444,4.183990478515625
-6.882986068725586,-0.10645779967308044,4.125503063201904
-6.881554126739502,-0.10604764521121979,4.067460536956787
-6.880146503448486,-0.10564479976892471,4.00986909866333
-6.878741264343262,-0.1052488163113594,3.9527063369750977
-6.8773512840271,-0.10485980659723282,3.8959715366363525
-6.8759894371032715,-0.10447785258293152,3.8396623134613037
-6.875786304473877,-0.10411996394395828,3.7843918800354004
-6.878504276275635,-0.10381249338388443,3.7310807704925537
-6.882819652557373,-0.10353497415781021,3.678943634033203
-6.888097763061523,-0.10327759385108948,3.6276018619537354
-6.894361972808838,-0.10304049402475357,3.577038049697876
-6.900846481323242,-0.1028120368719101,3.5268306732177734
-6.907301425933838,-0.10258843749761581,3.4768433570861816
-6.9137396812438965,-0.10236980766057968,3.427076578140259
-6.920138835906982,-0.10215576738119125,3.3775134086608887
-6.926517486572266,-0.10194655507802963,3.3281586170196533
-6.932877540588379,-0.10174211114645004,3.2790069580078125
-6.9391984939575195,-0.10154210776090622,3.230043649673462
-6.945500373840332,-0.10134677588939667,3.1812732219696045
-6.951862812042236,-0.10115721821784973,3.1327261924743652
-6.958780765533447,-0.10098057240247726,3.084615468978882
-6.9661784172058105,-0.10081560909748077,3.0368900299072266
-6.976316928863525,-0.10069487988948822,2.9905035495758057
-6.987627983093262,-0.10059544444084167,2.944730758666992
-6.999492645263672,-0.10050825029611588,2.899284839630127
-7.011989593505859,-0.1004343330860138,2.8541815280914307
-7.0246195793151855,-0.10036645084619522,2.8092029094696045
-7.037210941314697,-0.10030212253332138,2.764275074005127
-7.049813747406006,-0.10024203360080719,2.7194132804870605
-7.062409400939941,-0.10018588602542877,2.6746063232421875
-7.074962615966797,-0.10013316571712494,2.6298372745513916
-7.087556838989258,-0.10008503496646881,2.5851333141326904
-7.100076675415039,-0.10003981739282608,2.540447950363159
-7.1126275062561035,-0.09999900311231613,2.495816230773926
-7.125136852264404,-0.0999615266919136,2.4512081146240234
-7.137685775756836,-0.09992852807044983,2.4066481590270996
-7.150599002838135,-0.09990450739860535,2.362238883972168
-7.164051532745361,-0.09989185631275177,2.318025588989258
-7.1779398918151855,-0.09988907724618912,2.273960828781128
-7.192850589752197,-0.09990425407886505,2.2302138805389404
-7.208439350128174,-0.09993253648281097,2.1866562366485596
-7.224286079406738,-0.09996803104877472,2.143145799636841
-7.241077423095703,-0.10002020746469498,2.0998735427856445
-7.258882522583008,-0.10008993744850159,2.0568363666534424
-7.276906490325928,-0.1001661941409111,2.01379132270813
-7.29571533203125,-0.10025674849748611,1.9708831310272217
-7.314766883850098,-0.10035409033298492,1.9279506206512451
-7.33385705947876,-0.10045543313026428,1.8849332332611084
-7.352962970733643,-0.10056044161319733,1.8418214321136475
-7.372098922729492,-0.10066931694746017,1.7986149787902832
-7.391332626342773,-0.10078298300504684,1.755326509475708
-7.410521030426025,-0.10089950263500214,1.7119179964065552
-7.429809093475342,-0.10102082788944244,1.668419361114502
-7.449208736419678,-0.1011471375823021,1.624828577041626
-7.468552589416504,-0.10127615183591843,1.5811047554016113
-7.4880194664001465,-0.10141030699014664,1.5372824668884277
-7.508179187774658,-0.10155731439590454,1.4934697151184082
-7.529061794281006,-0.10171754658222198,1.4496558904647827
-7.550868034362793,-0.10189368575811386,1.4058613777160645
-7.575704574584961,-0.10211410373449326,1.3624446392059326
-7.6019439697265625,-0.10235676169395447,1.319062352180481
-7.6289753913879395,-0.1026134118437767,1.275583267211914
-7.656393527984619,-0.10287859290838242,1.2319241762161255
-7.68403434753418,-0.10315010696649551,1.1880494356155396
-7.711874485015869,-0.10342765599489212,1.1439485549926758
-7.73980712890625,-0.10370983183383942,1.0995995998382568
-7.767941951751709,-0.10399811714887619,1.0550129413604736
-7.7961859703063965,-0.10429131239652634,1.0101697444915771
-7.824620723724365,-0.10459049791097641,0.965074896812439
-7.853261947631836,-0.1048959344625473,0.9197238087654114
-7.882909297943115,-0.105218306183815,0.8741981983184814
-7.913589954376221,-0.10555798560380936,0.8284790515899658
-7.946051120758057,-0.10592492669820786,0.7826177477836609
-7.981821060180664,-0.10633949190378189,0.7367190718650818
-8.021241188049316,-0.1068062037229538,0.6907480359077454
-8.061383247375488,-0.10728604346513748,0.6443997025489807
-8.102092742919922,-0.10777698457241058,0.5976462364196777
-8.143054962158203,-0.1082749143242836,0.5504528880119324
-8.184431076049805,-0.10878200083971024,0.5028215646743774
-8.226226806640625,-0.10929839313030243,0.45474183559417725
-8.268284797668457,-0.10982201248407364,0.406194806098938
-8.31164264678955,-0.11036670953035355,0.35721689462661743
-8.3585205078125,-0.11096201092004776,0.3078625500202179
-8.409624099731445,-0.1116173043847084,0.2580850124359131
-8.46632194519043,-0.11235078424215317,0.20783653855323792
-8.5278902053833,-0.1131528988480568,0.15699715912342072
-8.591507911682129,-0.11398628354072571,0.1054389551281929
-8.656076431274414,-0.11483646184206009,0.05311368778347969
-8.721619606018066,-0.11570381373167038,1.6020826692388752e-15
-8.788167953491211,-0.11658885329961777,-0.05392419919371605
-8.857098579406738,-0.11750996857881546,-0.10869841277599335
-8.941699028015137,-0.11864355206489563,-0.16461533308029175
-9.040203094482422,-0.11996636539697647,-0.2219245284795761
-9.147207260131836,-0.1214069202542305,-0.28072088956832886
-9.256287574768066,-0.12288015335798264,-0.3409292697906494
-9.368182182312012,-0.12439604103565216,-0.4026247262954712
-9.494243621826172,-0.12610557675361633,-0.46642225980758667
-9.659998893737793,-0.12834830582141876,-0.534000039100647
-9.916973114013672,-0.131809800863266,-0.6092626452445984
-10.716828346252441,-0.14249734580516815,-0.7244343757629395
-7.8646955490112305,-0.148466557264328,-7.961806774139404
-7.769083023071289,-0.14758113026618958,-7.962143898010254
-7.6746015548706055,-0.14671169221401215,-7.962478160858154
-7.581223011016846,-0.14585790038108826,-7.962807655334473
-7.488921642303467,-0.14501942694187164,-7.963133335113525
-7.3976731300354,-0.14419595897197723,-7.963457107543945
-7.307451248168945,-0.14338713884353638,-7.963776588439941
-7.234496116638184,-0.14291396737098694,-7.982036590576172
-7.194357872009277,-0.14309246838092804,-8.036301612854004
-7.155265808105469,-0.14329980313777924,-8.092001914978027
-7.116141319274902,-0.14351482689380646,-8.147961616516113
-7.076796531677246,-0.14373385906219482,-8.203973770141602
-7.037389278411865,-0.14396020770072937,-8.260229110717773
-6.997788906097412,-0.14419130980968475,-8.316583633422852
-6.958115100860596,-0.1444297581911087,-8.373188972473145
-6.9183759689331055,-0.1446758657693863,-8.430066108703613
-6.878379821777344,-0.14492575824260712,-8.486990928649902
-6.838180065155029,-0.1451806277036667,-8.544035911560059
-6.5442657470703125,-0.14001666009426117,-8.280441284179688
-6.217991828918457,-0.13407939672470093,-7.967620372772217
-6.13991641998291,-0.1334475725889206,-7.967898368835449
-6.062567710876465,-0.13282659649848938,-7.968170642852783
-5.98593282699585,-0.13221633434295654,-7.968440055847168
-5.909998416900635,-0.13161663711071014,-7.968709945678711
-5.834743499755859,-0.1310271918773651,-7.968973636627197
-5.760159015655518,-0.13044793903827667,-7.969237804412842
-5.686228275299072,-0.12987865507602692,-7.969499111175537
-5.966959476470947,-0.1374756395816803,-8.472431182861328
-6.336765766143799,-0.1472817212343216,-9.115819931030273
-6.293904781341553,-0.14759106934070587,-9.173757553100586
-6.250905513763428,-0.14790832996368408,-9.232006072998047
-6.2075934410095215,-0.14822955429553986,-9.29032039642334
-6.164026737213135,-0.14855623245239258,-9.34879207611084
-6.120355129241943,-0.1488921195268631,-9.407661437988281
-6.076388835906982,-0.14923284947872162,-9.466651916503906
-6.03230094909668,-0.14958280324935913,-9.526043891906738
-5.9880781173706055,-0.14994190633296967,-9.585836410522461
-5.9436140060424805,-0.15030774474143982,-9.645874977111816
-5.899020671844482,-0.15068335831165314,-9.706357955932617
-5.854189872741699,-0.15106622874736786,-9.767125129699707
-5.809033393859863,-0.15145428478717804,-9.828043937683105
-5.763671398162842,-0.15185081958770752,-9.889327049255371
-5.718082904815674,-0.15225555002689362,-9.950957298278809
-5.672142028808594,-0.15266531705856323,-10.012730598449707
3.429312229156494,-0.42841824889183044,-19.068265914916992
1.1251351833343506,-0.13592630624771118,-6.043089866638184
1.1475013494491577,-0.13420793414115906,-5.959765434265137
1.1693463325500488,-0.13254153728485107,-5.878701210021973
1.1906335353851318,-0.13091836869716644,-5.799511432647705
1.2114485502243042,-0.12934379279613495,-5.722434043884277
1.231680989265442,-0.12780219316482544,-5.646779537200928
1.2514854669570923,-0.1263064444065094,-5.573117733001709
1.2708890438079834,-0.12485551834106445,-5.501402854919434
1.28977632522583,-0.12343484163284302,-5.43099308013916
1.3082866668701172,-0.12205508351325989,-5.362358570098877
1.3263752460479736,-0.120709128677845,-5.295186996459961
1.3440579175949097,-0.119395911693573,-5.22943115234375
1.3613498210906982,-0.11811444163322449,-5.165047645568848
1.3782929182052612,-0.11686603724956512,-5.102095127105713
1.3949508666992188,-0.11565374583005905,-5.040704727172852
1.4111427068710327,-0.11446049064397812,-4.980133056640625
1.4270495176315308,-0.1132994219660759,-4.920951843261719
1.4425735473632812,-0.11216088384389877,-4.862741470336914
1.4577875137329102,-0.11104900389909744,-4.805681228637695
1.4727636575698853,-0.10996755957603455,-4.749934196472168
1.4873913526535034,-0.10890662670135498,-4.695070266723633
1.501741886138916,-0.10787013173103333,-4.641258716583252
1.5158265829086304,-0.10685745626688004,-4.588472366333008
1.529659390449524,-0.10586823523044586,-4.5366950035095215
1.543291687965393,-0.1049046590924263,-4.486018180847168
1.5566644668579102,-0.10396140068769455,-4.436213970184326
1.5697981119155884,-0.1030387133359909,-4.38729190826416
1.582689881324768,-0.10213534533977509,-4.339197635650635
1.5953772068023682,-0.10125267505645752,-4.291989326477051
1.6078143119812012,-0.10038680583238602,-4.245500564575195
1.6200597286224365,-0.09954047948122025,-4.1998467445373535
1.6321457624435425,-0.09871470928192139,-4.155069351196289
1.6440073251724243,-0.09790463745594025,-4.1109619140625
1.655637264251709,-0.09710908681154251,-4.067474842071533
1.6671016216278076,-0.09633120149374008,-4.0247392654418945
1.6850100755691528,-0.0959465354681015,-3.9984042644500732
1.7125465869903564,-0.09611684828996658,-3.9950687885284424
1.741686224937439,-0.09637462347745895,-3.995171546936035
1.7709834575653076,-0.09663742035627365,-3.995274543762207
1.8004422187805176,-0.09690532833337784,-3.9953784942626953
1.8300659656524658,-0.0971783995628357,-3.9954833984375
1.8598579168319702,-0.0974566787481308,-3.9955880641937256
1.889822244644165,-0.09774024784564972,-3.9956934452056885
1.919962763786316,-0.09802918136119843,-3.995800018310547
1.9502828121185303,-0.0983235314488411,-3.995906352996826
1.9807868003845215,-0.0986233726143837,-3.996013641357422
2.011479139328003,-0.09892881661653519,-3.9961225986480713
2.042362689971924,-0.09923988580703735,-3.9962310791015625
2.073441982269287,-0.09955666214227676,-3.996340036392212
2.104722261428833,-0.09987926483154297,-3.996450901031494
2.136207103729248,-0.10020775347948074,-3.9965622425079346
2.1678998470306396,-0.10054216533899307,-3.9966728687286377
2.1998071670532227,-0.10088267177343369,-3.996785879135132
2.2319321632385254,-0.10122930258512497,-3.996899127960205
2.26427960395813,-0.10158215463161469,-3.9970126152038574
2.2968554496765137,-0.10194134712219238,-3.9971282482147217
2.329663038253784,-0.10230693221092224,-3.9972434043884277
2.36270809173584,-0.102679044008255,-3.9973602294921875
2.395995616912842,-0.10305774956941605,-3.9974772930145264
2.92045259475708,-0.12434535473585129,-4.8053669929504395
2.9321508407592773,-0.12359791249036789,-4.758579730987549
2.9436306953430176,-0.12286069244146347,-4.712223529815674
2.9551169872283936,-0.12214266508817673,-4.666639804840088
2.9664885997772217,-0.12143827229738235,-4.621612548828125
2.9776594638824463,-0.12074361741542816,-4.576991558074951
2.988774538040161,-0.12006419897079468,-4.532983303070068
2.999748468399048,-0.11939617991447449,-4.48944091796875
3.010556936264038,-0.11873824149370193,-4.44631290435791
3.0212931632995605,-0.11809372156858444,-4.403722763061523
3.031900405883789,-0.11746004223823547,-4.361571311950684
3.0423593521118164,-0.11683614552021027,-4.319818496704102
3.0527544021606445,-0.11622495204210281,-4.27856969833374
3.062920331954956,-0.11561987549066544,-4.237581253051758
3.073033332824707,-0.11502730846405029,-4.197086334228516
3.082965850830078,-0.11444219201803207,-4.156898021697998
3.0927865505218506,-0.11386684328317642,-4.117100238800049
3.102550983428955,-0.11330299824476242,-4.077753067016602
3.1121902465820312,-0.11274788528680801,-4.038754463195801
3.126359224319458,-0.11236855387687683,-4.006059169769287
3.161451816558838,-0.11274553835391998,-4.000175952911377
3.2016358375549316,-0.1133010983467102,-4.000317573547363
3.2422194480895996,-0.11386647075414658,-4.000460624694824
3.283212423324585,-0.114441879093647,-4.000606060028076
3.32462215423584,-0.11502743512392044,-4.000751495361328
3.366459846496582,-0.11562340706586838,-4.000898838043213
3.4087350368499756,-0.11622998118400574,-4.0010480880737305
3.451457977294922,-0.11684739589691162,-4.001199245452881
3.494638681411743,-0.11747583746910095,-4.001351356506348
3.538287401199341,-0.11811552196741104,-4.001504421234131
3.5824155807495117,-0.11876671761274338,-4.001659393310547
3.6270368099212646,-0.11942970752716064,-4.001818656921387
3.672158718109131,-0.12010462582111359,-4.00197696685791
3.7177956104278564,-0.12079180777072906,-4.002137660980225
3.7639598846435547,-0.12149150669574738,-4.00230073928833
3.8106637001037598,-0.12220398336648941,-4.00246524810791
12.526779174804688,-0.39915573596954346,-12.996662139892578
20.369792938232422,-0.46229684352874756,-4.705662727355957
8.310137748718262,-0.18833695352077484,-1.8661038875579834
8.310324668884277,-0.18808557093143463,-1.812656044960022
8.310508728027344,-0.18784187734127045,-1.7593481540679932
8.310693740844727,-0.18760588765144348,-1.7061766386032104
8.310876846313477,-0.18737751245498657,-1.6531362533569336
8.311059951782227,-0.18715672194957733,-1.6002227067947388
8.311243057250977,-0.18694351613521576,-1.5474320650100708
8.31142520904541,-0.1867378056049347,-1.494759440422058
8.311607360839844,-0.18653956055641174,-1.4422006607055664
8.311788558959961,-0.18634873628616333,-1.3897513151168823
8.311971664428711,-0.18616534769535065,-1.3374075889587402
8.312153816223145,-0.18598930537700653,-1.2851645946502686
8.312333106994629,-0.185820534825325,-1.233018159866333
8.312512397766113,-0.18565905094146729,-1.1809642314910889
8.31269359588623,-0.18550486862659454,-1.1289989948272705
8.312871932983398,-0.18535788357257843,-1.077117919921875
8.3130521774292,-0.18521814048290253,-1.0253171920776367
8.313230514526367,-0.18508552014827728,-0.9735924005508423
8.313410758972168,-0.18496009707450867,-0.9219399094581604
8.31358814239502,-0.18484176695346832,-0.8703551888465881
8.31376838684082,-0.18473057448863983,-0.8188347220420837
8.313946723937988,-0.18462644517421722,-0.7673741579055786
8.314123153686523,-0.18452933430671692,-0.7159695029258728
8.314300537109375,-0.1844392865896225,-0.6646170616149902
8.31447696685791,-0.184356227517128,-0.6133126616477966
8.314653396606445,-0.18428020179271698,-0.5620525479316711
8.31483268737793,-0.18421123921871185,-0.5108329653739929
8.315009117126465,-0.18414919078350067,-0.4596496522426605
8.315187454223633,-0.18409417569637299,-0.40849894285202026
8.315363883972168,-0.18404605984687805,-0.3573768138885498
8.315540313720703,-0.18400490283966064,-0.3062794804573059
8.315716743469238,-0.18397070467472076,-0.2552030682563782
8.31589412689209,-0.18394345045089722,-0.2041437327861786
8.316068649291992,-0.18392308056354523,-0.15309756994247437
8.316245079040527,-0.18390966951847076,-0.10206080973148346
8.316421508789062,-0.18390317261219025,-0.05102956295013428
8.316598892211914,-0.18390363454818726,-5.092280022576088e-16
8.31677532196045,-0.18391099572181702,0.05103173479437828
8.316949844360352,-0.18392525613307953,0.10206945985555649
8.31712818145752,-0.18394650518894196,0.1531170755624771
8.317303657531738,-0.18397462368011475,0.2041783481836319
8.317479133605957,-0.18400968611240387,0.25525715947151184
8.317654609680176,-0.18405170738697052,0.30635738372802734
8.317831993103027,-0.1841006875038147,0.3574828803539276
8.31800651550293,-0.184156596660614,0.40863746404647827
8.318182945251465,-0.18421949446201324,0.4598250985145569
8.31836223602295,-0.18428944051265717,0.5110498666763306
8.318538665771484,-0.18436631560325623,0.5623151659965515
8.318717002868652,-0.18445023894309998,0.6136254072189331
8.318893432617188,-0.18454115092754364,0.6649841666221619
8.319070816040039,-0.1846391260623932,0.7163955569267273
8.319249153137207,-0.184744194149971,0.7678635716438293
8.319427490234375,-0.18485631048679352,0.8193920254707336
8.31960391998291,-0.1849755197763443,0.8709849715232849
8.319782257080078,-0.18510186672210693,0.9226465225219727
10.059785842895508,-0.22397077083587646,1.1781377792358398
4.189691066741943,-0.16089728474617004,5.948904037475586
4.0904083251953125,-0.1584681123495102,5.884298801422119
4.015312671661377,-0.15694710612297058,5.852567672729492
3.9493160247802734,-0.15576347708702087,5.832772731781006
3.889134645462036,-0.1547955870628357,5.820501327514648
3.8326754570007324,-0.15396514534950256,5.812902450561523
3.779034376144409,-0.15323923528194427,5.808793067932129
3.727010726928711,-0.15257155895233154,5.806460857391357
3.677433729171753,-0.1519978940486908,5.807302474975586
3.6295204162597656,-0.15148821473121643,5.810209274291992
3.5838239192962646,-0.15106764435768127,5.816178321838379
3.5390100479125977,-0.15068194270133972,5.823153018951416
3.495880126953125,-0.15036652982234955,5.832523345947266
3.0880916118621826,-0.13420289754867554,5.22460412979126
2.9627115726470947,-0.13010720908641815,5.083430767059326
2.921156644821167,-0.12964971363544464,5.083575248718262
2.8798909187316895,-0.12920024991035461,5.083718299865723
2.838909149169922,-0.1287587583065033,5.083861351013184
2.798205852508545,-0.12832510471343994,5.0840044021606445
2.7577731609344482,-0.12789912521839142,5.0841450691223145
2.717607021331787,-0.12748076021671295,5.084284782409668
2.677700996398926,-0.127069890499115,5.084424018859863
2.638049840927124,-0.12666639685630798,5.084561824798584
2.5986483097076416,-0.12627020478248596,5.0846991539001465
2.55949068069458,-0.12588119506835938,5.084834575653076
2.5205721855163574,-0.12549929320812225,5.084969997406006
2.4818880558013916,-0.12512440979480743,5.085104465484619
2.4434328079223633,-0.12475643306970596,5.085238456726074
2.4052014350891113,-0.12439528852701187,5.085371494293213
2.367189884185791,-0.12404090166091919,5.085504055023193
2.3411264419555664,-0.1243162453174591,5.1112542152404785
2.338968276977539,-0.12589044868946075,5.190426826477051
2.339256525039673,-0.12764644622802734,5.277278423309326
2.339617967605591,-0.1294606328010559,5.366739273071289
2.3400564193725586,-0.13133588433265686,5.458938121795654
2.3405513763427734,-0.13327385485172272,5.553955078125
2.3408281803131104,-0.13526158034801483,5.651259422302246
2.341289520263672,-0.13732506334781647,5.751946449279785
2.3416519165039062,-0.1394510567188263,5.855473518371582
2.341948986053467,-0.14164471626281738,5.962065696716309
2.34258770942688,-0.14393439888954163,6.072930335998535
2.3429839611053467,-0.1462884545326233,6.186746597290039
2.343567371368408,-0.14873751997947693,6.3048200607299805
2.344043016433716,-0.15126755833625793,6.426568984985352
2.3445770740509033,-0.15389381349086761,6.552654266357422
2.3449881076812744,-0.15660937130451202,6.682794570922852
2.345536708831787,-0.15943695604801178,6.8179731369018555
2.3460628986358643,-0.16237178444862366,6.958000659942627
2.346677303314209,-0.16542787849903107,7.103494167327881
2.3473422527313232,-0.1686096042394638,7.25465726852417
2.3478565216064453,-0.17190977931022644,7.411197662353516
2.3485803604125977,-0.17536260187625885,7.574604511260986
2.349313974380493,-0.17896229028701782,7.744650363922119
2.3498518466949463,-0.18270227313041687,7.921067237854004
-7.789623260498047,-0.22396302223205566,6.473172664642334
-7.647055625915527,-0.2187526971101761,6.275776386260986
-7.531312465667725,-0.21436631679534912,6.10383939743042
-7.416783332824707,-0.21006575226783752,5.935988903045654
-7.317760467529297,-0.20625214278697968,5.783432483673096
-7.25965690612793,-0.20363083481788635,5.665491580963135
-7.211819648742676,-0.20132875442504883,5.557295799255371
-7.171117782592773,-0.1992541402578354,5.456131935119629
-7.132175445556641,-0.19725492596626282,5.357726573944092
-7.094186305999756,-0.19530770182609558,5.261406898498535
-7.059516906738281,-0.19347642362117767,5.1688551902771
-7.031510829925537,-0.19185058772563934,5.082370758056641
-7.00610876083374,-0.1903170347213745,4.998850345611572
-6.989573955535889,-0.1890438050031662,4.922613620758057
-6.974423885345459,-0.18782591819763184,4.848196983337402
-6.959616184234619,-0.1866346001625061,4.7748332023620605
-6.944958209991455,-0.1854642629623413,4.702366352081299
-6.930509567260742,-0.18431612849235535,4.6308183670043945
-6.917364597320557,-0.1832188069820404,4.5608906745910645
-6.907346248626709,-0.1822196990251541,4.4937214851379395
-6.900142669677734,-0.181309312582016,4.429015636444092
-6.893006324768066,-0.18041464686393738,4.364948272705078
-6.886987209320068,-0.1795627921819687,4.302161693572998
-6.883965492248535,-0.178802028298378,4.241775035858154
-6.882333278656006,-0.1780896633863449,4.182724952697754
-6.8809051513671875,-0.17739452421665192,4.124255657196045
-6.879497051239014,-0.17671166360378265,4.066244602203369
-6.878090858459473,-0.1760404109954834,4.008670806884766
-6.876697540283203,-0.1753808706998825,3.9515321254730225
-6.875360012054443,-0.174733966588974,3.894843339920044
-6.874453067779541,-0.17410899698734283,3.838804006576538
-6.87617301940918,-0.17356114089488983,3.784604787826538
-6.87998628616333,-0.17307613790035248,3.731884479522705
-6.8838090896606445,-0.17260108888149261,3.6794724464416504
-6.887948036193848,-0.17214353382587433,3.6275229454040527
-6.893284320831299,-0.17172522842884064,3.576478958129883
-6.899415493011475,-0.17133572697639465,3.526099443435669
-6.905862808227539,-0.17096292972564697,3.476119041442871
-6.912297248840332,-0.17059853672981262,3.426361560821533
-6.918702125549316,-0.17024202644824982,3.37681245803833
-6.925078868865967,-0.16989333927631378,3.327467203140259
-6.931443691253662,-0.16955280303955078,3.2783286571502686
-6.93776798248291,-0.16921961307525635,3.2293777465820312
-6.944262981414795,-0.168898805975914,3.180706262588501
-6.951107501983643,-0.168594628572464,3.132385730743408
-6.9586663246154785,-0.16831573843955994,3.084564685821533
-6.966644287109375,-0.16805478930473328,3.037093162536621
-6.977067470550537,-0.16786037385463715,2.9908254146575928
-6.987729072570801,-0.16767899692058563,2.9447734355926514
-6.998776912689209,-0.16751410067081451,2.8989882469177246
-7.010667324066162,-0.16737644374370575,2.8536431789398193
-7.0229902267456055,-0.16725607216358185,2.808551549911499
-7.035555362701416,-0.16714830696582794,2.763624668121338
-7.048152446746826,-0.16704809665679932,2.7187724113464355
-7.060751914978027,-0.16695471107959747,2.673978567123413
-7.07330846786499,-0.16686700284481049,2.6292223930358887
-7.085897922515869,-0.16678673028945923,2.5845282077789307
-7.098410129547119,-0.16671128571033478,2.5398519039154053
-7.11096715927124,-0.16664347052574158,2.4952335357666016
-7.123599052429199,-0.16658397018909454,2.450679063796997
-7.136539459228516,-0.16653817892074585,2.406261682510376
-7.150021076202393,-0.1665114164352417,2.3620479106903076
-7.164193630218506,-0.16650709509849548,2.3180716037750244
-7.178369045257568,-0.16650910675525665,2.274096727371216
-7.193089962005615,-0.16652999818325043,2.230288028717041
-7.208570957183838,-0.1665746420621872,2.1866960525512695
-7.224623680114746,-0.1666385531425476,2.1432459354400635
-7.241537570953369,-0.16672833263874054,2.1000070571899414
-7.258803367614746,-0.16683213412761688,2.056813955307007
-7.276027202606201,-0.16694089770317078,2.013547897338867
-7.294354438781738,-0.1670808345079422,1.9705156087875366
-7.31306266784668,-0.16723529994487762,1.9275014400482178
-7.332071781158447,-0.16740241646766663,1.8844743967056274
-7.351167678833008,-0.16757729649543762,1.8413716554641724
-7.370306015014648,-0.16775888204574585,1.7981775999069214
-7.389529228210449,-0.1679481863975525,1.7548983097076416
-7.408720016479492,-0.16814249753952026,1.7115018367767334
-7.4279985427856445,-0.16834457218647003,1.6680128574371338
-7.447388172149658,-0.16855493187904358,1.6244314908981323
-7.466908931732178,-0.16877403855323792,1.5807567834854126
-7.486791133880615,-0.1690070778131485,1.5370302200317383
-7.50778341293335,-0.16927091777324677,1.4933909177780151
-7.529623508453369,-0.16955958306789398,1.4497640132904053
-7.551454067230225,-0.16985370218753815,1.4059704542160034
-7.575682640075684,-0.1702074408531189,1.362440586090088
-7.601076602935791,-0.17059293389320374,1.3189119100570679
-7.627565860748291,-0.17100858688354492,1.2753475904464722
-7.654665946960449,-0.17144350707530975,1.231646180152893
-7.682233810424805,-0.17189447581768036,1.187770962715149
-7.710058212280273,-0.17235679924488068,1.143679141998291
-7.737978458404541,-0.17282690107822418,1.0993398427963257
-7.766111850738525,-0.17330743372440338,1.0547643899917603
-7.794328212738037,-0.17379556596279144,1.0099290609359741
-7.822808742523193,-0.1742953211069107,0.964851438999176
-7.852006912231445,-0.17481686174869537,0.9195768237113953
-7.882816314697266,-0.17538006603717804,0.8741878271102905
-7.915153503417969,-0.17598307132720947,0.828642725944519
-7.947705268859863,-0.17659670114517212,0.782780647277832
-7.980649471282959,-0.17722496390342712,0.7366109490394592
-8.018564224243164,-0.17796948552131653,0.6905174851417542
-8.058542251586914,-0.1787656843662262,0.6441725492477417
-8.099217414855957,-0.17958329617977142,0.5974341630935669
-8.140146255493164,-0.18041256070137024,0.5502563118934631
-8.181492805480957,-0.18125715851783752,0.5026410818099976
-8.223258018493652,-0.18211722373962402,0.4545777142047882
-8.265825271606445,-0.183001309633255,0.4060739576816559
-8.310919761657715,-0.18394769728183746,0.35718584060668945
-8.361706733703613,-0.18502646684646606,0.30797988176345825
-8.413116455078125,-0.1861255019903183,0.25819218158721924
-8.465423583984375,-0.18725097179412842,0.20781448483467102
-8.524514198303223,-0.18853317201137543,0.15693502128124237
-8.587461471557617,-0.1899074912071228,0.105389304459095
-8.651968002319336,-0.1913232058286667,0.05308847874403
-8.717445373535156,-0.19276750087738037,1.6013158926633732e-15
-8.784147262573242,-0.1942461133003235,-0.053899526596069336
-8.855655670166016,-0.19583845138549805,-0.10868069529533386
-8.94301700592041,-0.1977890282869339,-0.16463959217071533
-9.035171508789062,-0.19985350966453552,-0.2218010127544403
-9.140448570251465,-0.20221646130084991,-0.2805134654045105
-9.249443054199219,-0.20467016100883484,-0.3406771719455719
-9.362817764282227,-0.2072296291589737,-0.40239417552948
-9.494169235229492,-0.21019625663757324,-0.46641862392425537
-9.669905662536621,-0.21415555477142334,-0.5345476865768433
-9.933786392211914,-0.22007839381694794,-0.6102955937385559
-10.68256950378418,-0.23676106333732605,-0.722118616104126
-13.716751098632812,-0.4289540946483612,-13.716751098632812
-7.865396499633789,-0.24749211966991425,-7.9625163078308105
-7.769772052764893,-0.2460160106420517,-7.962850093841553
-7.67527961730957,-0.24456660449504852,-7.963181495666504
-7.5818915367126465,-0.24314332008361816,-7.963510036468506
-7.489577770233154,-0.24174542725086212,-7.963830947875977
-7.398319244384766,-0.2403726577758789,-7.964152812957764
-7.308088779449463,-0.2390243262052536,-7.964470863342285
-7.235011577606201,-0.23823174834251404,-7.98260498046875
-7.194812297821045,-0.23852737247943878,-8.036808967590332
-7.155710697174072,-0.23887278139591217,-8.09250545501709
-7.116584300994873,-0.23923122882843018,-8.148468971252441
-7.077232360839844,-0.2395961731672287,-8.204479217529297
-7.0378193855285645,-0.23997338116168976,-8.260734558105469
-6.99821662902832,-0.2403586059808731,-8.317091941833496
-6.958535671234131,-0.24075593054294586,-8.37369441986084
-6.918788433074951,-0.24116598069667816,-8.430567741394043
-6.878790378570557,-0.24158254265785217,-8.487497329711914
-6.838537216186523,-0.2420056015253067,-8.544482231140137
-6.544702529907227,-0.23340100049972534,-8.280993461608887
-6.218512058258057,-0.22350765764713287,-7.968286991119385
-6.140427112579346,-0.22245432436466217,-7.968561172485352
-6.063072204589844,-0.22141917049884796,-7.968832969665527
-5.986429214477539,-0.2204018235206604,-7.9691009521484375
-5.910485744476318,-0.2194020301103592,-7.969367504119873
-5.835225582122803,-0.21841946244239807,-7.969631671905518
-5.760632514953613,-0.21745377779006958,-7.969892978668213
-5.6866936683654785,-0.21650472283363342,-7.970151901245117
-5.9673662185668945,-0.22916559875011444,-8.47300910949707
-6.337074279785156,-0.24550709128379822,-9.116263389587402
-6.294168472290039,-0.2460210770368576,-9.174141883850098
-6.251162528991699,-0.24654974043369293,-9.232385635375977
-6.207888126373291,-0.24708674848079681,-9.29076099395752
-6.164363384246826,-0.24763306975364685,-9.349302291870117
-6.1207146644592285,-0.24819400906562805,-9.40821361541748
-6.076781272888184,-0.24876342713832855,-9.467263221740723
-6.032725811004639,-0.2493482381105423,-9.526715278625488
-5.988501071929932,-0.24994690716266632,-9.58651351928711
-5.944006443023682,-0.2505555748939514,-9.646512031555176
-5.899385452270508,-0.25118064880371094,-9.706957817077637
-5.854524612426758,-0.2518177330493927,-9.767684936523438
-5.809327602386475,-0.2524629235267639,-9.828540802001953
-5.763926029205322,-0.2531222999095917,-9.889763832092285
-5.718342304229736,-0.2537972331047058,-9.951409339904785
-5.67244291305542,-0.254482239484787,-10.013261795043945
1.1250572204589844,-0.1903134137392044,-6.042671203613281
1.1474214792251587,-0.18790744245052338,-5.9593505859375
1.1692638397216797,-0.18557408452033997,-5.878285884857178
1.1905466318130493,-0.18330103158950806,-5.799088001251221
1.211356282234192,-0.18109585344791412,-5.72199821472168
1.2315871715545654,-0.17893743515014648,-5.6463494300842285
1.2513924837112427,-0.1768435537815094,-5.572703838348389
1.270795464515686,-0.1748122125864029,-5.500997543334961
1.2896820306777954,-0.17282317578792572,-5.430595874786377
1.3081915378570557,-0.1708914190530777,-5.361968517303467
1.3262795209884644,-0.16900703310966492,-5.294804573059082
1.343961238861084,-0.16716842353343964,-5.229054927825928
1.3612529039382935,-0.16537432372570038,-5.164680004119873
1.3781946897506714,-0.16362637281417847,-5.101730823516846
1.394848108291626,-0.16192863881587982,-5.040333271026611
1.4110394716262817,-0.16025803983211517,-4.979768753051758
1.4269450902938843,-0.15863241255283356,-4.920591354370117
1.442467451095581,-0.15703825652599335,-4.8623833656311035
1.4576797485351562,-0.15548144280910492,-4.805326461791992
1.4726545810699463,-0.15396727621555328,-4.749582290649414
1.4872806072235107,-0.1524817943572998,-4.69472074508667
1.5016298294067383,-0.1510305404663086,-4.6409125328063965
1.515712857246399,-0.1496126353740692,-4.588128566741943
1.529544472694397,-0.14822758734226227,-4.536354064941406
1.543169379234314,-0.14687786996364594,-4.485662937164307
1.556528091430664,-0.14555597305297852,-4.435825347900391
1.5696607828140259,-0.14426414668560028,-4.386908054351807
1.58256196975708,-0.1430003046989441,-4.3388471603393555
1.5952558517456055,-0.14176514744758606,-4.29166316986084
1.6076936721801758,-0.14055296778678894,-4.245182037353516
1.6199373006820679,-0.1393679529428482,-4.199529647827148
1.6320223808288574,-0.13821177184581757,-4.154755115509033
1.6438833475112915,-0.13707759976387024,-4.11065149307251
1.6555122137069702,-0.13596372306346893,-4.06716775894165
1.6669756174087524,-0.13487458229064941,-4.024435043334961
1.6849009990692139,-0.13433746993541718,-3.998145341873169
1.7124412059783936,-0.13457636535167694,-3.9948229789733887
1.7415788173675537,-0.13493725657463074,-3.9949252605438232
1.7708743810653687,-0.1353052258491516,-3.995028495788574
1.8003315925598145,-0.13568036258220673,-3.9951331615448
1.8299531936645508,-0.13606266677379608,-3.995237350463867
1.8597439527511597,-0.1364523321390152,-3.995342969894409
1.8897062540054321,-0.13684935867786407,-3.995448350906372
1.9198448657989502,-0.13725389540195465,-3.9955544471740723
1.9501630067825317,-0.1376660168170929,-3.9956607818603516
1.980666160583496,-0.13808591663837433,-3.995770215988159
2.0113561153411865,-0.13851355016231537,-3.995878219604492
2.0422377586364746,-0.13894908130168915,-3.9959869384765625
2.0733158588409424,-0.1393926590681076,-3.9960968494415283
2.1045942306518555,-0.1398443579673767,-3.9962079524993896
2.136077404022217,-0.140304297208786,-3.996319532394409
2.167768716812134,-0.14077253639698029,-3.9964308738708496
2.199673891067505,-0.14124928414821625,-3.9965434074401855
2.231796979904175,-0.14173461496829987,-3.996656894683838
2.264143228530884,-0.14222869277000427,-3.996771812438965
2.2967164516448975,-0.14273159205913544,-3.9968864917755127
2.3295228481292725,-0.14324350655078888,-3.9970030784606934
2.362565517425537,-0.14376448094844818,-3.9971187114715576
2.3958513736724854,-0.14429473876953125,-3.997236490249634
2.920253038406372,-0.17409884929656982,-4.8050384521484375
2.931933879852295,-0.17305134236812592,-4.758227348327637
2.943403482437134,-0.1720186024904251,-4.711859703063965
2.954888343811035,-0.1710132658481598,-4.666278839111328
2.9662582874298096,-0.1700270026922226,-4.621253967285156
2.977428436279297,-0.16905438899993896,-4.576635837554932
2.9885427951812744,-0.1681031435728073,-4.532631874084473
2.9995155334472656,-0.16716782748699188,-4.4890923500061035
3.0103225708007812,-0.16624660789966583,-4.445966720581055
3.0210583209991455,-0.16534423828125,-4.403380393981934
3.0316643714904785,-0.16445699334144592,-4.361231803894043
3.042119026184082,-0.16358327865600586,-4.319477081298828
3.052492141723633,-0.16272641718387604,-4.278202056884766
3.0626564025878906,-0.16187919676303864,-4.237215995788574
3.072782516479492,-0.16105028986930847,-4.196743965148926
3.0827224254608154,-0.16023148596286774,-4.156569957733154
3.092546224594116,-0.15942613780498505,-4.1167802810668945
3.1023106575012207,-0.15863673388957977,-4.077437400817871
3.1119487285614014,-0.15785948932170868,-4.038441181182861
3.126147747039795,-0.1573299616575241,-4.005788326263428
3.161268711090088,-0.15785931050777435,-3.9999442100524902
3.201451063156128,-0.15863721072673798,-4.000086307525635
3.242032289505005,-0.15942880511283875,-4.000229835510254
3.2830233573913574,-0.1602344810962677,-4.000375747680664
3.3244311809539795,-0.1610543578863144,-4.000521659851074
3.366266965866089,-0.16188882291316986,-4.000669956207275
3.408540964126587,-0.16273817420005798,-4.000820159912109
