2.519124984741210938e+00,-3.112443089485168457e-01,-5.876673698425292969e+00
2.556782722473144531e+00,-3.114448785781860352e-01,-5.864882946014404297e+00
2.594502449035644531e+00,-3.116588890552520752e-01,-5.853103637695312500e+00
2.632266998291015625e+00,-3.118839561939239502e-01,-5.841289043426513672e+00
2.670058488845825195e+00,-3.121176660060882568e-01,-5.829393386840820312e+00
2.707889795303344727e+00,-3.123614490032196045e-01,-5.817440032958984375e+00
2.745799303054809570e+00,-3.126193583011627197e-01,-5.805505275726318359e+00
2.783768653869628906e+00,-3.128890097141265869e-01,-5.793540477752685547e+00
2.821802377700805664e+00,-3.131706416606903076e-01,-5.781549930572509766e+00
2.859902858734130859e+00,-3.134642541408538818e-01,-5.769531250000000000e+00
2.898077964782714844e+00,-3.137704133987426758e-01,-5.757492065429687500e+00
2.936328649520874023e+00,-3.140889406204223633e-01,-5.745428085327148438e+00
2.974658727645874023e+00,-3.144200146198272705e-01,-5.733339786529541016e+00
3.013071775436401367e+00,-3.147636950016021729e-01,-5.721226692199707031e+00
3.051576375961303711e+00,-3.151206076145172119e-01,-5.709097862243652344e+00
3.090171575546264648e+00,-3.154904544353485107e-01,-5.696944236755371094e+00
3.128841876983642578e+00,-3.158712983131408691e-01,-5.684730529785156250e+00
3.167613983154296875e+00,-3.162657022476196289e-01,-5.672499179840087891e+00
3.206492424011230469e+00,-3.166738152503967285e-01,-5.660250663757324219e+00
3.245457172393798828e+00,-3.170934021472930908e-01,-5.647943019866943359e+00
3.284535646438598633e+00,-3.175269067287445068e-01,-5.635617256164550781e+00
3.323733091354370117e+00,-3.179746270179748535e-01,-5.623275279998779297e+00
3.363024711608886719e+00,-3.184338808059692383e-01,-5.610867500305175781e+00
3.402423143386840820e+00,-3.189057409763336182e-01,-5.598410129547119141e+00
3.441953659057617188e+00,-3.193922936916351318e-01,-5.585937500000000000e+00
3.481596469879150391e+00,-3.198914527893066406e-01,-5.573410034179687500e+00
3.521364450454711914e+00,-3.204042613506317139e-01,-5.560842037200927734e+00
3.561276912689208984e+00,-3.209321796894073486e-01,-5.548257350921630859e+00
3.601297378540039062e+00,-3.214716911315917969e-01,-5.535591602325439453e+00
3.641476631164550781e+00,-3.220271766185760498e-01,-5.522916793823242188e+00
3.681795120239257812e+00,-3.225966095924377441e-01,-5.510195732116699219e+00
3.722250461578369141e+00,-3.231796026229858398e-01,-5.497417926788330078e+00
3.762897729873657227e+00,-3.237807154655456543e-01,-5.484657764434814453e+00
3.803684234619140625e+00,-3.243950903415679932e-01,-5.471828937530517578e+00
3.844630241394042969e+00,-3.250243365764617920e-01,-5.458955764770507812e+00
3.885749101638793945e+00,-3.256693482398986816e-01,-5.446048259735107422e+00
3.927015066146850586e+00,-3.263277113437652588e-01,-5.433064460754394531e+00
3.968465566635131836e+00,-3.270023763179779053e-01,-5.420049190521240234e+00
4.010074615478515625e+00,-3.276910185813903809e-01,-5.406960010528564453e+00
4.051853179931640625e+00,-3.283943235874176025e-01,-5.393804073333740234e+00
4.093830108642578125e+00,-3.291144073009490967e-01,-5.380613803863525391e+00
4.135987758636474609e+00,-3.298497200012207031e-01,-5.367358207702636719e+00
4.178327560424804688e+00,-3.306001126766204834e-01,-5.354032039642333984e+00
4.220855712890625000e+00,-3.313659429550170898e-01,-5.340636253356933594e+00
4.263586044311523438e+00,-3.321481347084045410e-01,-5.327182292938232422e+00
4.306525707244873047e+00,-3.329469859600067139e-01,-5.313670158386230469e+00
4.349653244018554688e+00,-3.337607085704803467e-01,-5.300067901611328125e+00
4.393031120300292969e+00,-3.345938920974731445e-01,-5.286442756652832031e+00
4.436585903167724609e+00,-3.354407250881195068e-01,-5.272699832916259766e+00
4.480378150939941406e+00,-3.363056778907775879e-01,-5.258903503417968750e+00
4.524415493011474609e+00,-3.371891081333160400e-01,-5.245055198669433594e+00
4.568684101104736328e+00,-3.380897343158721924e-01,-5.231130123138427734e+00
4.613159179687500000e+00,-3.390056490898132324e-01,-5.217093944549560547e+00
4.657903671264648438e+00,-3.399412631988525391e-01,-5.203010559082031250e+00
3.944867849349975586e+00,-2.191960662603378296e-01,2.171231746673583984e+00
3.888839721679687500e+00,-2.168191820383071899e-01,2.171590089797973633e+00
3.833784818649291992e+00,-2.144885957241058350e-01,2.171812295913696289e+00
3.780019521713256836e+00,-2.122222632169723511e-01,2.172099113464355469e+00
3.727326869964599609e+00,-2.100083380937576294e-01,2.172350883483886719e+00
3.675711393356323242e+00,-2.078473716974258423e-01,2.172592163085937500e+00
3.625123262405395508e+00,-2.057368159294128418e-01,2.172815322875976562e+00
3.575699329376220703e+00,-2.036847919225692749e-01,2.173124551773071289e+00
3.527189731597900391e+00,-2.016773819923400879e-01,2.173390626907348633e+00
3.479478836059570312e+00,-1.997081935405731201e-01,2.173560142517089844e+00
3.432804584503173828e+00,-1.977911293506622314e-01,2.173799514770507812e+00
3.387007474899291992e+00,-1.959173083305358887e-01,2.174028873443603516e+00
3.341960906982421875e+00,-1.940796822309494019e-01,2.174184083938598633e+00
3.297859430313110352e+00,-1.922897547483444214e-01,2.174408435821533203e+00
3.254519462585449219e+00,-1.905371397733688354e-01,2.174600362777709961e+00
3.211923122406005859e+00,-1.888210177421569824e-01,2.174763202667236328e+00
3.170131683349609375e+00,-1.871452331542968750e-01,2.174954652786254883e+00
3.129083156585693359e+00,-1.855064034461975098e-01,2.175149202346801758e+00
3.088670969009399414e+00,-1.838984042406082153e-01,2.175287485122680664e+00
3.049080610275268555e+00,-1.823325902223587036e-01,2.175515413284301758e+00
3.010008096694946289e+00,-1.807909607887268066e-01,2.175631523132324219e+00
2.971711635589599609e+00,-1.792892813682556152e-01,2.175835371017456055e+00
2.933941364288330078e+00,-1.778127104043960571e-01,2.175959110260009766e+00
2.896788358688354492e+00,-1.763669550418853760e-01,2.176082372665405273e+00
2.860275030136108398e+00,-1.749535948038101196e-01,2.176234960556030273e+00
2.824301719665527344e+00,-1.735667884349822998e-01,2.176355123519897461e+00
2.788927793502807617e+00,-1.722103804349899292e-01,2.176500558853149414e+00
2.754050254821777344e+00,-1.708782315254211426e-01,2.176603555679321289e+00
2.719746112823486328e+00,-1.695753186941146851e-01,2.176736354827880859e+00
2.685967922210693359e+00,-1.682989150285720825e-01,2.176873683929443359e+00
2.654445648193359375e+00,-1.671581864356994629e-01,2.178447246551513672e+00
2.654585123062133789e+00,-1.680161952972412109e-01,2.205958843231201172e+00
2.654765605926513672e+00,-1.688919514417648315e-01,2.233788490295410156e+00
2.654947757720947266e+00,-1.697833091020584106e-01,2.261910676956176758e+00
2.655132532119750977e+00,-1.706906408071517944e-01,2.290333032608032227e+00
2.655318975448608398e+00,-1.716141700744628906e-01,2.319061517715454102e+00
2.655506372451782227e+00,-1.725542247295379639e-01,2.348102807998657227e+00
2.655696868896484375e+00,-1.735112667083740234e-01,2.377465963363647461e+00
2.655889749526977539e+00,-1.744856089353561401e-01,2.407158136367797852e+00
2.656084060668945312e+00,-1.754775643348693848e-01,2.437186002731323242e+00
2.656280040740966797e+00,-1.764874905347824097e-01,2.467557907104492188e+00
2.656478881835937500e+00,-1.775158792734146118e-01,2.498283147811889648e+00
2.656681299209594727e+00,-1.785631477832794189e-01,2.529370784759521484e+00
2.656884670257568359e+00,-1.796295791864395142e-01,2.560827493667602539e+00
2.657091140747070312e+00,-1.807156950235366821e-01,2.592663764953613281e+00
2.657299995422363281e+00,-1.818219125270843506e-01,2.624888420104980469e+00
2.657912731170654297e+00,-1.829763054847717285e-01,2.657912731170654297e+00
2.658258676528930664e+00,-1.841334253549575806e-01,2.691082239151000977e+00
2.658609867095947266e+00,-1.853123158216476440e-01,2.724675893783569336e+00
2.658955574035644531e+00,-1.865127831697463989e-01,2.758693456649780273e+00
2.659284353256225586e+00,-1.877345144748687744e-01,2.793133497238159180e+00
2.659654617309570312e+00,-1.889821439981460571e-01,2.828068733215332031e+00
2.659989595413208008e+00,-1.902508139610290527e-01,2.863429307937622070e+00
2.660380601882934570e+00,-1.915475875139236450e-01,2.899325132369995117e+00
2.660715103149414062e+00,-1.928649842739105225e-01,2.935646533966064453e+00
2.661052703857421875e+00,-1.942078918218612671e-01,2.972471237182617188e+00
2.661454677581787109e+00,-1.955813914537429810e-01,3.009880781173706055e+00
2.661762237548828125e+00,-1.969745457172393799e-01,3.047710180282592773e+00
2.662179946899414062e+00,-1.984030902385711670e-01,3.086206436157226562e+00
2.662559032440185547e+00,-1.998567283153533936e-01,3.125214099884033203e+00
2.662883996963500977e+00,-2.013349533081054688e-01,3.164727926254272461e+00
2.663255214691162109e+00,-2.028460353612899780e-01,3.204882144927978516e+00
2.663605213165283203e+00,-2.043856680393218994e-01,3.245612382888793945e+00
2.664025068283081055e+00,-2.059616446495056152e-01,3.287046670913696289e+00
2.664391040802001953e+00,-2.075653076171875000e-01,3.329051256179809570e+00
2.664791107177734375e+00,-2.092042714357376099e-01,3.371752500534057617e+00
2.665144681930541992e+00,-2.108731567859649658e-01,3.415067195892333984e+00
2.665548563003540039e+00,-2.125805318355560303e-01,3.459138393402099609e+00
2.665910243988037109e+00,-2.143199592828750610e-01,3.503866434097290039e+00
2.666336774826049805e+00,-2.161010652780532837e-01,3.549412488937377930e+00
2.666761159896850586e+00,-2.179195433855056763e-01,3.595710992813110352e+00
2.667108774185180664e+00,-2.197702974081039429e-01,3.642682552337646484e+00
2.667563676834106445e+00,-2.216696143150329590e-01,3.690600872039794922e+00
2.667903423309326172e+00,-2.236002236604690552e-01,3.739184141159057617e+00
2.668353557586669922e+00,-2.255821377038955688e-01,3.788771152496337891e+00
2.668760538101196289e+00,-2.276037633419036865e-01,3.839172840118408203e+00
2.669264078140258789e+00,-2.296783775091171265e-01,3.890618562698364258e+00
2.669632434844970703e+00,-2.317874133586883545e-01,3.942799091339111328e+00
2.670052528381347656e+00,-2.339483499526977539e-01,3.996016025543212891e+00
2.670557737350463867e+00,-2.361657768487930298e-01,4.050353527069091797e+00
2.670949935913085938e+00,-2.384237498044967651e-01,4.105545043945312500e+00
2.671482801437377930e+00,-2.407464534044265747e-01,4.162011146545410156e+00
2.671920776367187500e+00,-2.431145012378692627e-01,4.219423770904541016e+00
2.672447443008422852e+00,-2.455463111400604248e-01,4.278108119964599609e+00
2.672887802124023438e+00,-2.480276674032211304e-01,4.337822437286376953e+00
2.673275947570800781e+00,-2.505635023117065430e-01,4.398657798767089844e+00
2.673806190490722656e+00,-2.531740367412567139e-01,4.460976123809814453e+00
2.674334287643432617e+00,-2.558479905128479004e-01,4.524586200714111328e+00
2.674837112426757812e+00,-2.585853338241577148e-01,4.589494228363037109e+00
2.675440788269042969e+00,-2.614006400108337402e-01,4.655965328216552734e+00
2.675916671752929688e+00,-2.642740309238433838e-01,4.723653316497802734e+00
2.676450729370117188e+00,-2.672262489795684814e-01,4.792933940887451172e+00
2.676974773406982422e+00,-2.702532112598419189e-01,4.863742351531982422e+00
2.677593946456909180e+00,-2.733684182167053223e-01,4.936328887939453125e+00
2.678064346313476562e+00,-2.765499651432037354e-01,5.010305881500244141e+00
2.678709506988525391e+00,-2.798341810703277588e-01,5.086338996887207031e+00
2.679320812225341797e+00,-2.832029163837432861e-01,5.164107322692871094e+00
2.679894447326660156e+00,-2.866590619087219238e-01,5.243670940399169922e+00
2.680478334426879883e+00,-2.902112305164337158e-01,5.325195789337158203e+00
2.681173324584960938e+00,-2.938742935657501221e-01,5.408964157104492188e+00
2.681822061538696289e+00,-2.976352870464324951e-01,5.494746685028076172e+00
2.682420969009399414e+00,-3.014977872371673584e-01,5.582617282867431641e+00
2.682965993881225586e+00,-3.054655492305755615e-01,5.672655105590820312e+00
2.683804273605346680e+00,-3.095831274986267090e-01,5.765696525573730469e+00
2.684582233428955078e+00,-3.138154447078704834e-01,5.861102104187011719e+00
2.685292720794677734e+00,-3.181667029857635498e-01,5.958958625793457031e+00
2.685926675796508789e+00,-3.226410150527954102e-01,6.059353351593017578e+00
2.686651706695556641e+00,-3.272643685340881348e-01,6.162783145904541016e+00
2.687485218048095703e+00,-3.320456445217132568e-01,6.269428253173828125e+00
2.688396453857421875e+00,-3.369882106781005859e-01,6.379365921020507812e+00
2.689072608947753906e+00,-3.420597910881042480e-01,6.491995334625244141e+00
2.689975976943969727e+00,-3.473263084888458252e-01,6.608579158782958984e+00
2.690786600112915039e+00,-3.527551293373107910e-01,6.728510379791259766e+00
2.691542148590087891e+00,-3.583593070507049561e-01,6.852049827575683594e+00
2.692696332931518555e+00,-3.642090260982513428e-01,6.980553150177001953e+00
2.693561553955078125e+00,-3.702220022678375244e-01,7.112461090087890625e+00
2.694643259048461914e+00,-3.764774799346923828e-01,7.249307632446289062e+00
2.695609092712402344e+00,-3.829408884048461914e-01,7.390443801879882812e+00
2.696637868881225586e+00,-3.896492719650268555e-01,7.536598205566406250e+00
2.697540044784545898e+00,-3.965880274772644043e-01,7.687504291534423828e+00
2.698681831359863281e+00,-4.038248360157012939e-01,7.844490051269531250e+00
-7.714561462402343750e+00,-4.882763624191284180e-01,6.410796165466308594e+00
-7.592076778411865234e+00,-4.780951738357543945e-01,6.230656147003173828e+00
-7.472866535186767578e+00,-4.682391285896301270e-01,6.056471347808837891e+00
-7.358410358428955078e+00,-4.587945640087127686e-01,5.889270305633544922e+00
-7.269791603088378906e+00,-4.510626196861267090e-01,5.745521545410156250e+00
-7.218369483947753906e+00,-4.457190036773681641e-01,5.633270740509033203e+00
-7.169504165649414062e+00,-4.406001567840576172e-01,5.524688720703125000e+00
-7.126255035400390625e+00,-4.358895123004913330e-01,5.421998023986816406e+00
-7.089514732360839844e+00,-4.316352903842926025e-01,5.325679302215576172e+00
-7.060657024383544922e+00,-4.279139935970306396e-01,5.236540317535400391e+00
-7.032940387725830078e+00,-4.243113100528717041e-01,5.149395942687988281e+00
-7.005674839019775391e+00,-4.207838475704193115e-01,5.063696861267089844e+00
-6.978878974914550781e+00,-4.173313677310943604e-01,4.979421615600585938e+00
-6.961156845092773438e+00,-4.144648909568786621e-01,4.902599811553955078e+00
-6.945713520050048828e+00,-4.117737412452697754e-01,4.828239440917968750e+00
-6.931270599365234375e+00,-4.091799259185791016e-01,4.755385875701904297e+00
-6.917377471923828125e+00,-4.066555202007293701e-01,4.683691978454589844e+00
-6.909628391265869141e+00,-4.045269489288330078e-01,4.616866111755371094e+00
-6.902482509613037109e+00,-4.024660885334014893e-01,4.551078319549560547e+00
-6.895387649536132812e+00,-4.004399180412292480e-01,4.485941410064697266e+00
-6.888387680053710938e+00,-3.984503746032714844e-01,4.421470642089843750e+00
-6.881437301635742188e+00,-3.964942395687103271e-01,4.357622146606445312e+00
-6.874562263488769531e+00,-3.945724368095397949e-01,4.294400215148925781e+00
-6.867915630340576172e+00,-3.926931619644165039e-01,4.231885433197021484e+00
-6.863286972045898438e+00,-3.909577131271362305e-01,4.171149730682373047e+00
-6.862060070037841797e+00,-3.894428908824920654e-01,4.112960338592529297e+00
-6.860849380493164062e+00,-3.879546821117401123e-01,4.055222511291503906e+00
-6.859715938568115234e+00,-3.864961862564086914e-01,3.997961759567260742e+00
-6.858930110931396484e+00,-3.850820362567901611e-01,3.941322326660156250e+00
-6.860734462738037109e+00,-3.838372230529785156e-01,3.886558055877685547e+00
-6.864584445953369141e+00,-3.827294707298278809e-01,3.833293437957763672e+00
-6.868596553802490234e+00,-3.816526830196380615e-01,3.780434846878051758e+00
-6.872583866119384766e+00,-3.805960416793823242e-01,3.727869272232055664e+00
-6.876542091369628906e+00,-3.795591294765472412e-01,3.675588369369506836e+00
-6.880500793457031250e+00,-3.785432577133178711e-01,3.623600959777832031e+00
-6.884478569030761719e+00,-3.775491714477539062e-01,3.571909904479980469e+00
-6.888764858245849609e+00,-3.765924274921417236e-01,3.520656108856201172e+00
-6.894135475158691406e+00,-3.757148981094360352e-01,3.470216035842895508e+00
-6.900709629058837891e+00,-3.749222755432128906e-01,3.420617580413818359e+00
-6.907254695892333984e+00,-3.741469383239746094e-01,3.371225118637084961e+00
-6.913770675659179688e+00,-3.733887374401092529e-01,3.322033643722534180e+00
-6.921009540557861328e+00,-3.726879060268402100e-01,3.273393630981445312e+00
-6.928744316101074219e+00,-3.720317780971527100e-01,3.225177288055419922e+00
-6.936726093292236328e+00,-3.714065551757812500e-01,3.177254199981689453e+00
-6.944717407226562500e+00,-3.707993030548095703e-01,3.129506111145019531e+00
-6.952673912048339844e+00,-3.702074587345123291e-01,3.081908464431762695e+00
-6.962883472442626953e+00,-3.697523772716522217e-01,3.035453557968139648e+00
-6.973707675933837891e+00,-3.693461716175079346e-01,2.989385128021240234e+00
-6.984492301940917969e+00,-3.689538240432739258e-01,2.943409204483032227e+00
-6.995275497436523438e+00,-3.685773313045501709e-01,2.897537946701049805e+00
-7.006051540374755859e+00,-3.682162165641784668e-01,2.851764202117919922e+00
-7.017216682434082031e+00,-3.678911030292510986e-01,2.806242465972900391e+00
-7.028602600097656250e+00,-3.675929605960845947e-01,2.760893583297729492e+00
-7.041208267211914062e+00,-3.673736751079559326e-01,2.716093778610229492e+00
-7.053935527801513672e+00,-3.671756088733673096e-01,2.671397209167480469e+00
-7.066610813140869141e+00,-3.669894933700561523e-01,2.626732826232910156e+00
-7.079402923583984375e+00,-3.668240904808044434e-01,2.582159280776977539e+00
-7.092807769775390625e+00,-3.667048811912536621e-01,2.537847280502319336e+00
-7.106596946716308594e+00,-3.666197955608367920e-01,2.493700027465820312e+00
-7.120820045471191406e+00,-3.665711879730224609e-01,2.449723005294799805e+00
-7.135113239288330078e+00,-3.665401637554168701e-01,2.405780792236328125e+00
-7.149413108825683594e+00,-3.665233850479125977e-01,2.361846923828125000e+00
-7.163718223571777344e+00,-3.665207028388977051e-01,2.317917585372924805e+00
-7.178027153015136719e+00,-3.665319979190826416e-01,2.273988485336303711e+00
-7.192866802215576172e+00,-3.665840923786163330e-01,2.230218887329101562e+00
-7.208793640136718750e+00,-3.667050600051879883e-01,2.186763525009155273e+00
-7.225828647613525391e+00,-3.668955862522125244e-01,2.143603563308715820e+00
-7.243155479431152344e+00,-3.671140670776367188e-01,2.100476264953613281e+00
-7.260567188262939453e+00,-3.673498332500457764e-01,2.057313919067382812e+00
-7.277934551239013672e+00,-3.675963282585144043e-01,2.014075756072998047e+00
-7.295384883880615234e+00,-3.678599894046783447e-01,1.970793843269348145e+00
-7.313019275665283203e+00,-3.681459128856658936e-01,1.927490115165710449e+00
-7.331233024597167969e+00,-3.684738278388977051e-01,1.884258866310119629e+00
-7.349769592285156250e+00,-3.688307702541351318e-01,1.841021418571472168e+00
-7.369033813476562500e+00,-3.692369461059570312e-01,1.797867178916931152e+00
-7.388395786285400391e+00,-3.696606755256652832e-01,1.754629015922546387e+00
-7.407848358154296875e+00,-3.701016306877136230e-01,1.711300611495971680e+00
-7.428007125854492188e+00,-3.705904483795166016e-01,1.668014764785766602e+00
-7.448999404907226562e+00,-3.711333870887756348e-01,1.624782919883728027e+00
-7.470449447631835938e+00,-3.717115819454193115e-01,1.581506252288818359e+00
-7.492289066314697266e+00,-3.723216652870178223e-01,1.538159012794494629e+00
-7.514176845550537109e+00,-3.729465901851654053e-01,1.494662761688232422e+00
-7.536188125610351562e+00,-3.735901117324829102e-01,1.451027870178222656e+00
-7.558403491973876953e+00,-3.742562830448150635e-01,1.407264351844787598e+00
-7.583027362823486328e+00,-3.750541210174560547e-01,1.363761544227600098e+00
-7.608657360076904297e+00,-3.759140372276306152e-01,1.320227265357971191e+00
-7.634363174438476562e+00,-3.767899870872497559e-01,1.276484131813049316e+00
-7.660522460937500000e+00,-3.777006864547729492e-01,1.232588529586791992e+00
-7.687259197235107422e+00,-3.786522150039672852e-01,1.188547968864440918e+00
-7.714986801147460938e+00,-3.796649873256683350e-01,1.144410252571105957e+00
-7.743069648742675781e+00,-3.807076513767242432e-01,1.100063204765319824e+00
-7.771711349487304688e+00,-3.817902505397796631e-01,1.055524945259094238e+00
-7.801740646362304688e+00,-3.829535245895385742e-01,1.010889410972595215e+00
-7.833086967468261719e+00,-3.841939568519592285e-01,9.661191105842590332e-01
-7.865309715270996094e+00,-3.854899406433105469e-01,9.211347699165344238e-01
-7.897713661193847656e+00,-3.868074119091033936e-01,8.758399486541748047e-01
-7.930392742156982422e+00,-3.881511390209197998e-01,8.302381634712219238e-01
-7.963204860687255859e+00,-3.895142376422882080e-01,7.843072414398193359e-01
-7.996425151824951172e+00,-3.909103274345397949e-01,7.380670309066772461e-01
-8.031105995178222656e+00,-3.923908770084381104e-01,6.915975213050842285e-01
-8.069325447082519531e+00,-3.940574228763580322e-01,6.450344920158386230e-01
-8.109912872314453125e+00,-3.958527743816375732e-01,5.982230901718139648e-01
-8.151047706604003906e+00,-3.976880908012390137e-01,5.509932041168212891e-01
-8.193317413330078125e+00,-3.995922207832336426e-01,5.033675432205200195e-01
-8.239279747009277344e+00,-4.016899466514587402e-01,4.554633796215057373e-01
-8.289048194885253906e+00,-4.039868712425231934e-01,4.072147905826568604e-01
-8.339917182922363281e+00,-4.063512384891510010e-01,3.584320545196533203e-01
-8.391209602355957031e+00,-4.087503254413604736e-01,3.090665340423583984e-01
-8.443135261535644531e+00,-4.111945033073425293e-01,2.591134309768676758e-01
-8.495913505554199219e+00,-4.136947989463806152e-01,2.085629701614379883e-01
-8.549690246582031250e+00,-4.162584841251373291e-01,1.573984920978546143e-01
-8.608648300170898438e+00,-4.190895259380340576e-01,1.056493073701858521e-01
-8.673800468444824219e+00,-4.222374558448791504e-01,5.322244018316268921e-02
-8.740921020507812500e+00,-4.254968464374542236e-01,1.605628137397844841e-15
-8.813951492309570312e+00,-4.290599524974822998e-01,-5.408240854740142822e-02
-8.900633811950683594e+00,-4.333041012287139893e-01,-1.092326939105987549e-01
-8.989030838012695312e+00,-4.376486539840698242e-01,-1.654866933822631836e-01
-9.079253196716308594e+00,-4.420996010303497314e-01,-2.228831648826599121e-01
-9.178819656372070312e+00,-4.470235407352447510e-01,-2.816910445690155029e-01
-9.295571327209472656e+00,-4.528033435344696045e-01,-3.423761725425720215e-01
-9.424788475036621094e+00,-4.592101573944091797e-01,-4.050575792789459229e-01
-9.565196990966796875e+00,-4.661830961704254150e-01,-4.699079990386962891e-01
-9.819087982177734375e+00,-4.787104129791259766e-01,-5.427944064140319824e-01
-1.009395122528076172e+01,-4.922870695590972900e-01,-6.201355457305908203e-01
-6.281997680664062500e+00,-4.931796789169311523e-01,-7.948593616485595703e+00
-6.203552722930908203e+00,-4.908412098884582520e-01,-7.949118614196777344e+00
-6.125847339630126953e+00,-4.885432720184326172e-01,-7.949640750885009766e+00
-6.048861503601074219e+00,-4.862848222255706787e-01,-7.950155735015869141e+00
-5.972581863403320312e+00,-4.840653836727142334e-01,-7.950667381286621094e+00
-5.896992683410644531e+00,-4.818841516971588135e-01,-7.951174259185791016e+00
-5.822078227996826172e+00,-4.797404408454895020e-01,-7.951675891876220703e+00
-5.747825622558593750e+00,-4.776336848735809326e-01,-7.952173709869384766e+00
-5.674219131469726562e+00,-4.755631685256958008e-01,-7.952668190002441406e+00
5.979952216148376465e-01,-3.744257986545562744e-01,-6.478848457336425781e+00
6.369009017944335938e-01,-3.739346563816070557e-01,-6.466563701629638672e+00
6.757075786590576172e-01,-3.734596371650695801e-01,-6.454324722290039062e+00
7.144190669059753418e-01,-3.730008304119110107e-01,-6.442132472991943359e+00
7.530335187911987305e-01,-3.725554347038269043e-01,-6.429940700531005859e+00
7.915654182434082031e-01,-3.721288740634918213e-01,-6.417842864990234375e+00
8.300009369850158691e-01,-3.717129826545715332e-01,-6.405697345733642578e+00
8.683544993400573730e-01,-3.713129758834838867e-01,-6.393596649169921875e+00
9.066300988197326660e-01,-3.709290325641632080e-01,-6.381542682647705078e+00
9.448313713073730469e-01,-3.705611228942871094e-01,-6.369535923004150391e+00
9.829474687576293945e-01,-3.702037632465362549e-01,-6.357481479644775391e+00
1.021002769470214844e+00,-3.698650598526000977e-01,-6.345520019531250000e+00
1.058986306190490723e+00,-3.695396184921264648e-01,-6.333557605743408203e+00
1.096901416778564453e+00,-3.692275881767272949e-01,-6.321598529815673828e+00
1.134758591651916504e+00,-3.689314723014831543e-01,-6.309684753417968750e+00
1.172553181648254395e+00,-3.686486780643463135e-01,-6.297771930694580078e+00
1.210288524627685547e+00,-3.683792948722839355e-01,-6.285862445831298828e+00
1.247978568077087402e+00,-3.681266605854034424e-01,-6.274012088775634766e+00
1.285617589950561523e+00,-3.678879737854003906e-01,-6.262173175811767578e+00
1.323215603828430176e+00,-3.676651716232299805e-01,-6.250379562377929688e+00
1.360756874084472656e+00,-3.674531280994415283e-01,-6.238542556762695312e+00
1.398263812065124512e+00,-3.672570586204528809e-01,-6.226751327514648438e+00
1.435739755630493164e+00,-3.670769631862640381e-01,-6.215005874633789062e+00
1.473167061805725098e+00,-3.669075667858123779e-01,-6.203215122222900391e+00
1.510570287704467773e+00,-3.667542934417724609e-01,-6.191471576690673828e+00
1.547941207885742188e+00,-3.666143715381622314e-01,-6.179728031158447266e+00
1.585284590721130371e+00,-3.664882481098175049e-01,-6.167990684509277344e+00
1.622604966163635254e+00,-3.663762807846069336e-01,-6.156266212463378906e+00
1.659904122352600098e+00,-3.662782013416290283e-01,-6.144548892974853516e+00
1.697195649147033691e+00,-3.661963343620300293e-01,-6.132876873016357422e+00
1.734458804130554199e+00,-3.661254942417144775e-01,-6.121163845062255859e+00
1.771720767021179199e+00,-3.660709261894226074e-01,-6.109495162963867188e+00
1.808960556983947754e+00,-3.660276234149932861e-01,-6.097787857055664062e+00
1.846193075180053711e+00,-3.659981489181518555e-01,-6.086082935333251953e+00
1.883435010910034180e+00,-3.659851551055908203e-01,-6.074425220489501953e+00
1.920662760734558105e+00,-3.659834861755371094e-01,-6.062726497650146484e+00
1.957901835441589355e+00,-3.659975230693817139e-01,-6.051059246063232422e+00
1.995150566101074219e+00,-3.660263121128082275e-01,-6.039406776428222656e+00
2.032409191131591797e+00,-3.660693764686584473e-01,-6.027760505676269531e+00
2.069681406021118164e+00,-3.661268353462219238e-01,-6.016120910644531250e+00
2.106956243515014648e+00,-3.661963045597076416e-01,-6.004446983337402344e+00
2.144249439239501953e+00,-3.662800192832946777e-01,-5.992775440216064453e+00
2.181565284729003906e+00,-3.663783073425292969e-01,-5.981110572814941406e+00
2.218906879425048828e+00,-3.664911389350891113e-01,-5.969449996948242188e+00
2.256262540817260742e+00,-3.666162192821502686e-01,-5.957755088806152344e+00
2.293650865554809570e+00,-3.667560815811157227e-01,-5.946066379547119141e+00
2.331076145172119141e+00,-3.669109940528869629e-01,-5.934386253356933594e+00
2.368526458740234375e+00,-3.670785725116729736e-01,-5.922675132751464844e+00
2.406002759933471680e+00,-3.672587275505065918e-01,-5.910930156707763672e+00
2.443526506423950195e+00,-3.674542307853698730e-01,-5.899194717407226562e+00
2.481099128723144531e+00,-3.676649332046508789e-01,-5.887464523315429688e+00
2.518708467483520508e+00,-3.678885996341705322e-01,-5.875701904296875000e+00
2.556360006332397461e+00,-3.681256771087646484e-01,-5.863913536071777344e+00
2.594073295593261719e+00,-3.683786094188690186e-01,-5.852135658264160156e+00
2.631831645965576172e+00,-3.686446249485015869e-01,-5.840322971343994141e+00
2.669616937637329102e+00,-3.689209222793579102e-01,-5.828429222106933594e+00
2.707442283630371094e+00,-3.692090511322021484e-01,-5.816478729248046875e+00
2.745345354080200195e+00,-3.695138692855834961e-01,-5.804544925689697266e+00
2.783308506011962891e+00,-3.698326349258422852e-01,-5.792582988739013672e+00
2.821335792541503906e+00,-3.701654970645904541e-01,-5.780594348907470703e+00
2.859430074691772461e+00,-3.705125451087951660e-01,-5.768577098846435547e+00
2.897598981857299805e+00,-3.708744347095489502e-01,-5.756540775299072266e+00
2.935843467712402344e+00,-3.712509572505950928e-01,-5.744479179382324219e+00
2.974167108535766602e+00,-3.716422617435455322e-01,-5.732392311096191406e+00
3.012573719024658203e+00,-3.720484673976898193e-01,-5.720281124114990234e+00
3.051071643829345703e+00,-3.724703490734100342e-01,-5.708153724670410156e+00
3.089660882949829102e+00,-3.729075193405151367e-01,-5.696002960205078125e+00
3.128324747085571289e+00,-3.733577132225036621e-01,-5.683791160583496094e+00
3.167091131210327148e+00,-3.738239407539367676e-01,-5.671562671661376953e+00
3.205962896347045898e+00,-3.743062913417816162e-01,-5.659316062927246094e+00
3.244921922683715820e+00,-3.748023211956024170e-01,-5.647011280059814453e+00
3.283995151519775391e+00,-3.753148913383483887e-01,-5.634689807891845703e+00
3.323186635971069336e+00,-3.758441209793090820e-01,-5.622350692749023438e+00
3.362474441528320312e+00,-3.763872981071472168e-01,-5.609949588775634766e+00
3.401869535446166992e+00,-3.769453167915344238e-01,-5.597499370574951172e+00
3.441396236419677734e+00,-3.775207102298736572e-01,-5.585032463073730469e+00
3.481033325195312500e+00,-3.781108260154724121e-01,-5.572508335113525391e+00
3.520795345306396484e+00,-3.787170052528381348e-01,-5.559943199157714844e+00
3.560701131820678711e+00,-3.793409764766693115e-01,-5.547360420227050781e+00
3.600715160369873047e+00,-3.799786865711212158e-01,-5.534696578979492188e+00
3.640887737274169922e+00,-3.806352317333221436e-01,-5.522024154663085938e+00
3.681200504302978516e+00,-3.813084065914154053e-01,-5.509305953979492188e+00
3.721652030944824219e+00,-3.819977939128875732e-01,-5.496534347534179688e+00
3.762293577194213867e+00,-3.827083706855773926e-01,-5.483777046203613281e+00
3.803073644638061523e+00,-3.834345936775207520e-01,-5.470950603485107422e+00
3.844012737274169922e+00,-3.841783106327056885e-01,-5.458078861236572266e+00
3.885125875473022461e+00,-3.849407732486724854e-01,-5.445174694061279297e+00
3.926384687423706055e+00,-3.857189118862152100e-01,-5.432192325592041016e+00
3.967828512191772461e+00,-3.865163922309875488e-01,-5.419179439544677734e+00
4.009428501129150391e+00,-3.873301148414611816e-01,-5.406088829040527344e+00
4.051195621490478516e+00,-3.881609737873077393e-01,-5.392929077148437500e+00
4.093160629272460938e+00,-3.890116512775421143e-01,-5.379734039306640625e+00
4.135306358337402344e+00,-3.898802697658538818e-01,-5.366473674774169922e+00
4.177637577056884766e+00,-3.907670974731445312e-01,-5.353147506713867188e+00
4.220159053802490234e+00,-3.916723430156707764e-01,-5.339755058288574219e+00
4.262882709503173828e+00,-3.925969004631042480e-01,-5.326303482055664062e+00
4.305814743041992188e+00,-3.935410976409912109e-01,-5.312792778015136719e+00
4.348934650421142578e+00,-3.945028781890869141e-01,-5.299192428588867188e+00
4.392305850982666016e+00,-3.954877257347106934e-01,-5.285570144653320312e+00
4.435853958129882812e+00,-3.964887261390686035e-01,-5.271829605102539062e+00
4.479638576507568359e+00,-3.975110352039337158e-01,-5.258035182952880859e+00
4.523668766021728516e+00,-3.985552787780761719e-01,-5.244189739227294922e+00
4.567930221557617188e+00,-3.996198475360870361e-01,-5.230267047882080078e+00
4.612397193908691406e+00,-4.007023572921752930e-01,-5.216232299804687500e+00
4.657135009765625000e+00,-4.018082916736602783e-01,-5.202151298522949219e+00
3.944180727005004883e+00,-2.590859234333038330e-01,2.170853614807128906e+00
3.888162851333618164e+00,-2.562765181064605713e-01,2.171212196350097656e+00
3.833118200302124023e+00,-2.535218596458435059e-01,2.171434640884399414e+00
3.779361724853515625e+00,-2.508430480957031250e-01,2.171720981597900391e+00
3.726675033569335938e+00,-2.482260167598724365e-01,2.171970844268798828e+00
3.675064802169799805e+00,-2.456715255975723267e-01,2.172209978103637695e+00
3.624485731124877930e+00,-2.431769222021102905e-01,2.172433137893676758e+00
3.575068950653076172e+00,-2.407513707876205444e-01,2.172741413116455078e+00
3.526566982269287109e+00,-2.383785694837570190e-01,2.173006772994995117e+00
3.478864908218383789e+00,-2.360510528087615967e-01,2.173176527023315430e+00
3.432199239730834961e+00,-2.337851524353027344e-01,2.173416137695312500e+00
3.386412620544433594e+00,-2.315704971551895142e-01,2.173646926879882812e+00
3.341374158859252930e+00,-2.293984740972518921e-01,2.173802375793457031e+00
3.297281265258789062e+00,-2.272828668355941772e-01,2.174027442932128906e+00
3.253949880599975586e+00,-2.252113819122314453e-01,2.174219846725463867e+00
3.211364984512329102e+00,-2.231832444667816162e-01,2.174385309219360352e+00
3.169581890106201172e+00,-2.212025672197341919e-01,2.174577474594116211e+00
3.128540277481079102e+00,-2.192654609680175781e-01,2.174771785736083984e+00
3.088136196136474609e+00,-2.173649519681930542e-01,2.174911022186279297e+00
3.048552989959716797e+00,-2.155141681432723999e-01,2.175138950347900391e+00
3.009487390518188477e+00,-2.136920243501663208e-01,2.175255298614501953e+00
2.971197605133056641e+00,-2.119170725345611572e-01,2.175459146499633789e+00
2.933433771133422852e+00,-2.101717740297317505e-01,2.175582885742187500e+00
2.896284818649291992e+00,-2.084627300500869751e-01,2.175704002380371094e+00
2.859777927398681641e+00,-2.067921757698059082e-01,2.175856828689575195e+00
2.823811054229736328e+00,-2.051530033349990845e-01,2.175976991653442383e+00
2.788442373275756836e+00,-2.035496830940246582e-01,2.176121711730957031e+00
2.753570318222045898e+00,-2.019750624895095825e-01,2.176224231719970703e+00
2.719272136688232422e+00,-2.004350423812866211e-01,2.176357030868530273e+00
2.685499668121337891e+00,-1.989263445138931274e-01,2.176494359970092773e+00
2.653986692428588867e+00,-1.975782960653305054e-01,2.178070545196533203e+00
2.654138565063476562e+00,-1.985933780670166016e-01,2.205587625503540039e+00
2.654318809509277344e+00,-1.996285170316696167e-01,2.233412742614746094e+00
2.654500961303710938e+00,-2.006820887327194214e-01,2.261530160903930664e+00
2.654685735702514648e+00,-2.017545402050018311e-01,2.289947748184204102e+00
2.654871702194213867e+00,-2.028461247682571411e-01,2.318670988082885742e+00
2.655059337615966797e+00,-2.039572745561599731e-01,2.347707509994506836e+00
2.655249595642089844e+00,-2.050884813070297241e-01,2.377065658569335938e+00
2.655442476272583008e+00,-2.062401473522186279e-01,2.406752824783325195e+00
2.655637025833129883e+00,-2.074126303195953369e-01,2.436775922775268555e+00
2.655833244323730469e+00,-2.086063623428344727e-01,2.467142820358276367e+00
2.656032085418701172e+00,-2.098219245672225952e-01,2.497862815856933594e+00
2.656233787536621094e+00,-2.110597491264343262e-01,2.528944969177246094e+00
2.656437397003173828e+00,-2.123202681541442871e-01,2.560396432876586914e+00
2.656644105911254883e+00,-2.136040776968002319e-01,2.592227697372436523e+00
2.656853199005126953e+00,-2.149116247892379761e-01,2.624447107315063477e+00
2.657466650009155273e+00,-2.162761688232421875e-01,2.657466650009155273e+00
2.657812595367431641e+00,-2.176438570022583008e-01,2.690630435943603516e+00
2.658163785934448242e+00,-2.190373390913009644e-01,2.724219083786010742e+00
2.658509016036987305e+00,-2.204562425613403320e-01,2.758230447769165039e+00
2.658837795257568359e+00,-2.219003140926361084e-01,2.792664766311645508e+00
2.659208059310913086e+00,-2.233749926090240479e-01,2.827593803405761719e+00
2.659543037414550781e+00,-2.248745560646057129e-01,2.862948417663574219e+00
2.659934043884277344e+00,-2.264073342084884644e-01,2.898838520050048828e+00
2.660268306732177734e+00,-2.279644757509231567e-01,2.935153722763061523e+00
2.660605907440185547e+00,-2.295517772436141968e-01,2.971972227096557617e+00
2.661008358001708984e+00,-2.311752885580062866e-01,3.009376049041748047e+00
2.661315679550170898e+00,-2.328219860792160034e-01,3.047199010848999023e+00
2.661732912063598633e+00,-2.345104664564132690e-01,3.085688352584838867e+00
2.662111997604370117e+00,-2.362286597490310669e-01,3.124689340591430664e+00
2.662436962127685547e+00,-2.379758805036544800e-01,3.164196491241455078e+00
2.662807941436767578e+00,-2.397619485855102539e-01,3.204343795776367188e+00
2.663157701492309570e+00,-2.415817677974700928e-01,3.245067119598388672e+00
2.663577318191528320e+00,-2.434445470571517944e-01,3.286494255065917969e+00
2.663943052291870117e+00,-2.453400492668151855e-01,3.328491449356079102e+00
2.664343595504760742e+00,-2.472773343324661255e-01,3.371186017990112305e+00
2.664697408676147461e+00,-2.492499798536300659e-01,3.414494037628173828e+00
2.665101289749145508e+00,-2.512680590152740479e-01,3.458557844161987305e+00
2.665462255477905273e+00,-2.533240020275115967e-01,3.503277540206909180e+00
2.665889263153076172e+00,-2.554292976856231689e-01,3.548816680908203125e+00
2.666313648223876953e+00,-2.575787305831909180e-01,3.595107793807983398e+00
2.666661739349365234e+00,-2.597663700580596924e-01,3.642071962356567383e+00
2.667116641998291016e+00,-2.620113492012023926e-01,3.689982414245605469e+00
2.667456626892089844e+00,-2.642933130264282227e-01,3.738557815551757812e+00
2.667906522750854492e+00,-2.666358947753906250e-01,3.788136243820190430e+00
2.668313741683959961e+00,-2.690255045890808105e-01,3.838530063629150391e+00
2.668816566467285156e+00,-2.714776098728179932e-01,3.889966249465942383e+00
2.669185161590576172e+00,-2.739704847335815430e-01,3.942138433456420898e+00
2.669605016708374023e+00,-2.765246927738189697e-01,3.995346307754516602e+00
2.670110225677490234e+00,-2.791456580162048340e-01,4.049674987792968750e+00
2.670502185821533203e+00,-2.818145453929901123e-01,4.104856967926025391e+00
2.671035289764404297e+00,-2.845599949359893799e-01,4.161313533782958984e+00
2.671472787857055664e+00,-2.873589694499969482e-01,4.218716621398925781e+00
2.671998977661132812e+00,-2.902332842350006104e-01,4.277389526367187500e+00
2.672438383102416992e+00,-2.931661605834960938e-01,4.337093353271484375e+00
2.672826290130615234e+00,-2.961634695529937744e-01,4.397918224334716797e+00
2.673356771469116211e+00,-2.992491126060485840e-01,4.460226535797119141e+00
2.673883676528930664e+00,-3.024095892906188965e-01,4.523824214935302734e+00
2.674386024475097656e+00,-3.056450784206390381e-01,4.588720798492431641e+00
2.674989700317382812e+00,-3.089727461338043213e-01,4.655180931091308594e+00
2.675465583801269531e+00,-3.123690485954284668e-01,4.722856998443603516e+00
2.675999641418457031e+00,-3.158585131168365479e-01,4.792125701904296875e+00
2.676523685455322266e+00,-3.194363713264465332e-01,4.862922191619873047e+00
2.677142143249511719e+00,-3.231184482574462891e-01,4.935495853424072266e+00
2.677611827850341797e+00,-3.268789052963256836e-01,5.009459018707275391e+00
2.678256750106811523e+00,-3.307608366012573242e-01,5.085479259490966797e+00
2.678868293762207031e+00,-3.347426652908325195e-01,5.163235187530517578e+00
2.679442167282104492e+00,-3.388278186321258545e-01,5.242785930633544922e+00
2.680026054382324219e+00,-3.430264890193939209e-01,5.324297428131103516e+00
2.680720806121826172e+00,-3.473562002182006836e-01,5.408051490783691406e+00
2.681370019912719727e+00,-3.518016636371612549e-01,5.493820190429687500e+00
2.681968450546264648e+00,-3.563670516014099121e-01,5.581675529479980469e+00
2.682514905929565430e+00,-3.610571324825286865e-01,5.671701431274414062e+00
2.683353185653686523e+00,-3.659240603446960449e-01,5.764727115631103516e+00
2.684132337570190430e+00,-3.709268271923065186e-01,5.860119819641113281e+00
2.684845685958862305e+00,-3.760703802108764648e-01,5.957966804504394531e+00
2.685481786727905273e+00,-3.813593387603759766e-01,6.058350086212158203e+00
2.686207532882690430e+00,-3.868241906166076660e-01,6.161764144897460938e+00
2.687040805816650391e+00,-3.924756348133087158e-01,6.268392086029052734e+00
2.687952518463134766e+00,-3.983177840709686279e-01,6.378312587738037109e+00
2.688628911972045898e+00,-4.043124020099639893e-01,6.490924358367919922e+00
2.689530849456787109e+00,-4.105371832847595215e-01,6.607485294342041016e+00
2.690339088439941406e+00,-4.169536828994750977e-01,6.727391719818115234e+00
2.691093921661376953e+00,-4.235776960849761963e-01,6.850908756256103516e+00
2.692248106002807617e+00,-4.304920136928558350e-01,6.979391098022460938e+00
2.693114757537841797e+00,-4.375995695590972900e-01,7.111281394958496094e+00
2.694197177886962891e+00,-4.449936449527740479e-01,7.248107433319091797e+00
2.695164918899536133e+00,-4.526337087154388428e-01,7.389225959777832031e+00
2.696196556091308594e+00,-4.605634808540344238e-01,7.535364627838134766e+00
2.697099447250366211e+00,-4.687652289867401123e-01,7.686248779296875000e+00
2.698239088058471680e+00,-4.773187339305877686e-01,7.843202590942382812e+00
-7.005272388458251953e+00,-4.974172115325927734e-01,5.063405990600585938e+00
-6.978468418121337891e+00,-4.933353066444396973e-01,4.979128837585449219e+00
-6.958930969238281250e+00,-4.898189306259155273e-01,4.901031970977783203e+00
-6.943352699279785156e+00,-4.866286814212799072e-01,4.826598167419433594e+00
-6.929099082946777344e+00,-4.835762381553649902e-01,4.753896236419677734e+00
-6.917398452758789062e+00,-4.807449281215667725e-01,4.683705806732177734e+00
-6.909847259521484375e+00,-4.782422482967376709e-01,4.617012500762939453e+00
-6.902698040008544922e+00,-4.758056402206420898e-01,4.551220417022705078e+00
-6.895588397979736328e+00,-4.734092354774475098e-01,4.486072063446044922e+00
-6.888586521148681641e+00,-4.710570275783538818e-01,4.421597957611083984e+00
-6.881621837615966797e+00,-4.687434732913970947e-01,4.357738971710205078e+00
-6.874744892120361328e+00,-4.664713442325592041e-01,4.294514179229736328e+00
-6.867939472198486328e+00,-4.642389118671417236e-01,4.231900215148925781e+00
-6.862432479858398438e+00,-4.621281325817108154e-01,4.170630455017089844e+00
-6.859926223754882812e+00,-4.602517187595367432e-01,4.111681461334228516e+00
-6.858622550964355469e+00,-4.584867060184478760e-01,4.053906440734863281e+00
-6.857614040374755859e+00,-4.567712843418121338e-01,3.996736526489257812e+00
-6.857448101043701172e+00,-4.551411867141723633e-01,3.940470695495605469e+00
-6.860105514526367188e+00,-4.537263512611389160e-01,3.886201858520507812e+00
-6.864099979400634766e+00,-4.524264335632324219e-01,3.833022832870483398e+00
-6.868112087249755859e+00,-4.511535465717315674e-01,3.780168056488037109e+00
-6.872092247009277344e+00,-4.499040842056274414e-01,3.727602720260620117e+00
-6.876050472259521484e+00,-4.486783444881439209e-01,3.675325632095336914e+00
-6.880009174346923828e+00,-4.474774897098541260e-01,3.623342275619506836e+00
-6.883916854858398438e+00,-4.462978541851043701e-01,3.571618556976318359e+00
-6.887822628021240234e+00,-4.451423585414886475e-01,3.520174741744995117e+00
-6.892658710479736328e+00,-4.440706968307495117e-01,3.469472885131835938e+00
-6.898824691772460938e+00,-4.431077539920806885e-01,3.419683456420898438e+00
-6.905353546142578125e+00,-4.421904683113098145e-01,3.370297193527221680e+00
-6.912069797515869141e+00,-4.413072466850280762e-01,3.321216583251953125e+00
-6.919605255126953125e+00,-4.404979348182678223e-01,3.272729396820068359e+00
-6.927638053894042969e+00,-4.397414624691009521e-01,3.224662542343139648e+00
-6.935662746429443359e+00,-4.390052258968353271e-01,3.176767110824584961e+00
-6.943652629852294922e+00,-4.382874369621276855e-01,3.129026412963867188e+00
-6.951658248901367188e+00,-4.375910460948944092e-01,3.081458091735839844e+00
-6.962053298950195312e+00,-4.370648562908172607e-01,3.035091638565063477e+00
-6.972876071929931641e+00,-4.365847110748291016e-01,2.989028692245483398e+00
-6.983660697937011719e+00,-4.361210465431213379e-01,2.943058729171752930e+00
-6.994439125061035156e+00,-4.356757700443267822e-01,2.897191524505615234e+00
-7.005214214324951172e+00,-4.352489411830902100e-01,2.851423501968383789e+00
-7.015949249267578125e+00,-4.348380863666534424e-01,2.805735826492309570e+00
-7.026734828948974609e+00,-4.344486892223358154e-01,2.760159969329833984e+00
-7.039189815521240234e+00,-4.341804087162017822e-01,2.715315103530883789e+00
-7.051842689514160156e+00,-4.339419603347778320e-01,2.670604705810546875e+00
-7.064544200897216797e+00,-4.337238669395446777e-01,2.625964879989624023e+00
-7.077393054962158203e+00,-4.335320889949798584e-01,2.581426143646240234e+00
-7.091178417205810547e+00,-4.334146976470947266e-01,2.537264108657836914e+00
-7.105500221252441406e+00,-4.333468079566955566e-01,2.493315219879150391e+00
-7.119781017303466797e+00,-4.332930147647857666e-01,2.449365615844726562e+00
-7.134074687957763672e+00,-4.332564771175384521e-01,2.405430555343627930e+00
-7.148369789123535156e+00,-4.332364797592163086e-01,2.361502408981323242e+00
-7.162673950195312500e+00,-4.332333803176879883e-01,2.317579746246337891e+00
-7.176980495452880859e+00,-4.332467317581176758e-01,2.273656845092773438e+00
-7.191730022430419922e+00,-4.333029687404632568e-01,2.229866504669189453e+00
-7.207674980163574219e+00,-4.334472119808197021e-01,2.186424255371093750e+00
-7.224774837493896484e+00,-4.336764812469482422e-01,2.143290758132934570e+00
-7.242102146148681641e+00,-4.339348673820495605e-01,2.100170612335205078e+00
-7.259509086608886719e+00,-4.342133998870849609e-01,2.057013988494873047e+00
-7.276874542236328125e+00,-4.345048367977142334e-01,2.013782501220703125e+00
-7.294322967529296875e+00,-4.348165392875671387e-01,1.970507025718688965e+00
-7.311814785003662109e+00,-4.351461529731750488e-01,1.927172541618347168e+00
-7.329453945159912109e+00,-4.354997873306274414e-01,1.883801460266113281e+00
-7.347578048706054688e+00,-4.358974695205688477e-01,1.840472459793090820e+00
-7.366832733154296875e+00,-4.363772869110107422e-01,1.797330260276794434e+00
-7.386186122894287109e+00,-4.368779063224792480e-01,1.754104375839233398e+00
-7.405709743499755859e+00,-4.374035596847534180e-01,1.710806488990783691e+00
-7.426309108734130859e+00,-4.380075931549072266e-01,1.667633533477783203e+00
-7.447904109954833984e+00,-4.386850893497467041e-01,1.624544024467468262e+00
-7.469563007354736328e+00,-4.393810331821441650e-01,1.581318616867065430e+00
-7.491401195526123047e+00,-4.401022195816040039e-01,1.537976741790771484e+00
-7.513284683227539062e+00,-4.408408105373382568e-01,1.494485259056091309e+00
-7.535293579101562500e+00,-4.416014850139617920e-01,1.450855731964111328e+00
-7.557326316833496094e+00,-4.423784315586090088e-01,1.407063841819763184e+00
-7.581862449645996094e+00,-4.433165490627288818e-01,1.363551974296569824e+00
-7.607488632202148438e+00,-4.443329870700836182e-01,1.320024490356445312e+00
-7.633189201354980469e+00,-4.453682899475097656e-01,1.276287913322448730e+00
-7.659067153930664062e+00,-4.464285671710968018e-01,1.232354283332824707e+00
-7.685219287872314453e+00,-4.475195407867431641e-01,1.188232660293579102e+00
-7.712752342224121094e+00,-4.487055540084838867e-01,1.144078731536865234e+00
-7.740820407867431641e+00,-4.499374628067016602e-01,1.099743604660034180e+00
-7.769643306732177734e+00,-4.512279033660888672e-01,1.055243968963623047e+00
-7.800695896148681641e+00,-4.526626169681549072e-01,1.010754108428955078e+00
-7.832517147064208984e+00,-4.541566371917724609e-01,9.660488963127136230e-01
-7.864767551422119141e+00,-4.556903541088104248e-01,9.210712909698486328e-01
-7.897181510925292969e+00,-4.572484791278839111e-01,8.757809400558471680e-01
-7.929852485656738281e+00,-4.588365256786346436e-01,8.301815986633300781e-01
-7.962675571441650391e+00,-4.604486227035522461e-01,7.842550873756408691e-01
-7.995888233184814453e+00,-4.620985984802246094e-01,7.380174398422241211e-01
-8.029651641845703125e+00,-4.637959301471710205e-01,6.914722323417663574e-01
-8.066778182983398438e+00,-4.657030701637268066e-01,6.448309421539306641e-01
-8.107134819030761719e+00,-4.678122401237487793e-01,5.980181694030761719e-01
-8.148208618164062500e+00,-4.699785113334655762e-01,5.508012771606445312e-01
