3.03166127204895,0.1644568294286728,-4.361227512359619
3.042059898376465,0.16358010470867157,-4.319393157958984
3.0524253845214844,0.1627228558063507,-4.278108596801758
3.062589645385742,0.1618756800889969,-4.237123489379883
3.072728157043457,0.16104744374752045,-4.196669578552246
3.082695722579956,0.1602301001548767,-4.156534194946289
3.0925452709198,0.15942607820034027,-4.11677885055542
3.102332592010498,0.1586378514766693,-4.077466011047363
3.111992835998535,0.15786172449588776,-4.038498401641846
3.126460552215576,0.1573456972837448,-4.006188869476318
3.1618263721466064,0.15788716077804565,-4.000649929046631
3.202017307281494,0.1586652547121048,-4.000793933868408
3.2426066398620605,0.15945705771446228,-4.000938415527344
3.283607006072998,0.16026295721530914,-4.001086711883545
3.3250246047973633,0.16108310222625732,-4.001235485076904
3.3668692111968994,0.1619177758693695,-4.00138521194458
3.409152030944824,0.16276735067367554,-4.001537322998047
3.4518818855285645,0.16363205015659332,-4.00169038772583
3.495070219039917,0.16451221704483032,-4.001845359802246
3.538726568222046,0.16540813446044922,-4.0020012855529785
3.582862615585327,0.16632017493247986,-4.002159118652344
3.6274914741516113,0.16724872589111328,-4.002320289611816
3.672621726989746,0.1681939959526062,-4.002481460571289
3.718266248703003,0.16915641725063324,-4.0026445388793945
3.7644383907318115,0.17013636231422424,-4.002809524536133
3.8111510276794434,0.17113423347473145,-4.00297737121582
8.310728073120117,0.2637317180633545,-1.8662363290786743
8.310921669006348,0.26337993144989014,-1.812786340713501
8.311114311218262,0.2630389630794525,-1.7594765424728394
8.311307907104492,0.26270875334739685,-1.7063026428222656
8.311498641967773,0.2623891830444336,-1.6532598733901978
8.311690330505371,0.2620803117752075,-1.6003440618515015
8.311881065368652,0.2617819607257843,-1.5475507974624634
8.31207275390625,0.2614941895008087,-1.4948759078979492
8.312261581420898,0.26121678948402405,-1.4423141479492188
8.312450408935547,0.26094985008239746,-1.389862060546875
8.312641143798828,0.2606932818889618,-1.3375152349472046
8.31282901763916,0.2604469358921051,-1.2852691411972046
8.313016891479492,0.26021087169647217,-1.2331196069717407
8.31320571899414,0.2599850594997406,-1.1810628175735474
8.313393592834473,0.25976935029029846,-1.1290942430496216
8.313579559326172,0.25956374406814575,-1.0772095918655396
8.31376838684082,0.25936833024024963,-1.0254055261611938
8.313955307006836,0.259182870388031,-0.9736772775650024
8.314143180847168,0.2590074837207794,-0.9220210909843445
8.314329147338867,0.25884202122688293,-0.8704327344894409
8.31451416015625,0.25868648290634155,-0.818908154964447
8.314702033996582,0.25854092836380005,-0.767443835735321
8.314888000488281,0.25840523838996887,-0.7160353064537048
8.315072059631348,0.25827935338020325,-0.664678692817688
8.31525707244873,0.25816333293914795,-0.6133701801300049
8.315441131591797,0.2580571174621582,-0.5621058344841003
8.315627098083496,0.2579607367515564,-0.5108818411827087
8.315813064575195,0.25787416100502014,-0.4596940875053406
8.315997123718262,0.2577972710132599,-0.40853872895240784
8.316181182861328,0.2577301561832428,-0.3574119806289673
8.316365242004395,0.2576727569103241,-0.30630987882614136
8.316549301147461,0.2576250731945038,-0.2552286386489868
8.316733360290527,0.25758713483810425,-0.20416434109210968
8.316916465759277,0.2575588524341583,-0.15311317145824432
8.31710147857666,0.2575403153896332,-0.10207130759954453
8.317286491394043,0.2575315237045288,-0.051034871488809586
8.31747055053711,0.25753238797187805,-5.092813653332859e-16
8.31765365600586,0.2575428783893585,0.051037125289440155
8.317837715148926,0.25756314396858215,0.10208035260438919
8.318021774291992,0.2575930953025818,0.15313352644443512
8.318205833435059,0.2576327323913574,0.20420049130916595
8.318388938903809,0.25768208503723145,0.2552850842475891
8.318572998046875,0.25774115324020386,0.3063912093639374
8.318758010864258,0.25780999660491943,0.3575226962566376
8.318941116333008,0.257888525724411,0.4086833596229553
8.319125175476074,0.25797685980796814,0.4598771929740906
8.319311141967773,0.2580750286579132,0.5111081600189209
8.31949520111084,0.25818294286727905,0.5623798966407776
8.319682121276855,0.2583007216453552,0.6136966347694397
8.319867134094238,0.25842827558517456,0.6650619506835938
8.320051193237305,0.2585656940937042,0.7164799571037292
8.320236206054688,0.258713036775589,0.7679547071456909
8.320422172546387,0.25887030363082886,0.8194900751113892
8.320608139038086,0.25903749465942383,0.8710900545120239
8.320794105529785,0.2592146694660187,0.9227586388587952
12.067591667175293,0.3762003779411316,1.4132791757583618
4.188143253326416,0.22520820796489716,5.946706295013428
4.090124607086182,0.22187469899654388,5.8838911056518555
4.016053199768066,0.21980087459087372,5.853647708892822
3.94966983795166,0.21812254190444946,5.8332953453063965
3.8902499675750732,0.21680988371372223,5.822170257568359
3.833160161972046,0.21561220288276672,5.8136372566223145
3.7790145874023438,0.2145673930644989,5.808762550354004
3.727426290512085,0.2136574238538742,5.807108402252197
3.678091526031494,0.21286840736865997,5.808341026306152
3.6305809020996094,0.21217867732048035,5.8119072914123535
3.5840861797332764,0.21154329180717468,5.816604137420654
3.5399954319000244,0.2110464721918106,5.824774265289307
3.4966931343078613,0.210595041513443,5.8338799476623535
3.0884652137756348,0.1879362016916275,5.225236415863037
2.963074207305908,0.18220089375972748,5.084052562713623
2.921516180038452,0.18156035244464874,5.084200859069824
2.8802480697631836,0.18093110620975494,5.084349155426025
2.8392632007598877,0.18031293153762817,5.0844950675964355
2.798555612564087,0.17970572412014008,5.084640026092529
2.758120536804199,0.1791093498468399,5.084784984588623
2.7179508209228516,0.17852357029914856,5.084928512573242
2.678041934967041,0.17794832587242126,5.085071086883545
2.638387441635132,0.1773834079504013,5.085212707519531
2.598982334136963,0.17682868242263794,5.085352897644043
2.5598225593566895,0.17628410458564758,5.085493564605713
2.520900249481201,0.17574937641620636,5.085631370544434
2.482212781906128,0.17522451281547546,5.0857696533203125
2.4437546730041504,0.17470936477184296,5.08590841293335
2.405519723892212,0.17420369386672974,5.086043834686279
2.367504358291626,0.173707515001297,5.086179733276367
2.341775894165039,0.1741182655096054,5.112671852111816
2.340057134628296,0.17635628581047058,5.192842960357666
2.340353488922119,0.1788167953491211,5.2797532081604
2.3407325744628906,0.18135960400104523,5.369295597076416
2.341196298599243,0.18398860096931458,5.461597442626953
2.3417139053344727,0.18670529127120972,5.556714057922363
2.342005729675293,0.18949110805988312,5.654101848602295
2.3424806594848633,0.19238299131393433,5.7548723220825195
2.342865228652954,0.19536322355270386,5.858508110046387
2.3431999683380127,0.1984395831823349,5.965250492095947
2.3438727855682373,0.2016502320766449,6.076261520385742
2.344297409057617,0.2049507051706314,6.19021463394165
2.344916820526123,0.20838503539562225,6.308450222015381
2.34541392326355,0.21193161606788635,6.430327892303467
2.345935583114624,0.21560989320278168,6.556450366973877
2.346330404281616,0.21941295266151428,6.686619758605957
2.346916913986206,0.2233780324459076,6.82198429107666
2.3474695682525635,0.22749239206314087,6.962172508239746
2.348083019256592,0.23177401721477509,7.107748508453369
2.3487446308135986,0.23623143136501312,7.258991241455078
2.3493030071258545,0.24085965752601624,7.4157633781433105
2.3500521183013916,0.2456999123096466,7.57935094833374
2.35079288482666,0.25074413418769836,7.749525547027588
2.3514251708984375,0.2559944689273834,7.926370143890381
-7.792030334472656,0.31369420886039734,6.475172996520996
-7.6141204833984375,0.3049824833869934,6.248746871948242
-7.491851806640625,0.2985871136188507,6.071857929229736
-7.396679878234863,0.293340802192688,5.9198994636535645
-7.316643238067627,0.28875407576560974,5.7825493812561035
-7.257918834686279,0.28505951166152954,5.664135456085205
-7.209967136383057,0.2818319499492645,5.555868625640869
-7.169188976287842,0.2789244055747986,5.45466423034668
-7.130337238311768,0.2761289179325104,5.3563456535339355
-7.092698097229004,0.2734162211418152,5.260303497314453
-7.059335231781006,0.2709024250507355,5.168722152709961
-7.0341973304748535,0.26873546838760376,5.084312438964844
-7.009731292724609,0.266623318195343,5.001434803009033
-6.989555835723877,0.26470205187797546,4.922600746154785
-6.973891258239746,0.26297736167907715,4.847826957702637
-6.959136962890625,0.2613113224506378,4.7745041847229
-6.944517612457275,0.2596741020679474,4.702067852020264
-6.93014669418335,0.2580694556236267,4.630576133728027
-6.916683197021484,0.25652122497558594,4.560441970825195
-6.906871795654297,0.25512996315956116,4.493412971496582
-6.8996663093566895,0.25385525822639465,4.428709983825684
-6.8925018310546875,0.2526015341281891,4.364628791809082
-6.886577606201172,0.2514123022556305,4.301905632019043
-6.884151458740234,0.25036877393722534,4.241889953613281
-6.8826446533203125,0.2493758350610733,4.1829142570495605
-6.881245136260986,0.24840348958969116,4.124459743499756
-6.879855155944824,0.2474479228258133,4.066455841064453
-6.87847900390625,0.24650904536247253,4.008896827697754
-6.877114772796631,0.2455865442752838,3.9517717361450195
-6.875987529754639,0.24468815326690674,3.8951985836029053
-6.8756513595581055,0.2438332438468933,3.8394734859466553
-6.878722667694092,0.24311372637748718,3.786007881164551
-6.881767749786377,0.24240727722644806,3.7328507900238037
-6.884795665740967,0.2417140007019043,3.680000066757202
-6.888282299041748,0.2410503625869751,3.627699136734009
-6.89381217956543,0.24047133326530457,3.5767526626586914
-6.900198936462402,0.2399348020553589,3.5264997482299805
-6.906672954559326,0.23941364884376526,3.476526975631714
-6.913119792938232,0.23890376091003418,3.426769256591797
-6.919546604156494,0.238405242562294,3.3772246837615967
-6.925934314727783,0.23791728913784027,3.32787823677063
-6.932320594787598,0.23744110763072968,3.2787435054779053
-6.938657760620117,0.23697490990161896,3.2297918796539307
-6.945016384124756,0.23652100563049316,3.18105149269104
-6.9520344734191895,0.23610089719295502,3.132803440093994
-6.960992336273193,0.23575767874717712,3.0855956077575684
-6.970505237579346,0.23544393479824066,3.038776397705078
-6.979994297027588,0.2351398915052414,2.992079973220825
-6.989455223083496,0.2348453253507614,2.9455008506774902
-6.999626159667969,0.23458489775657654,2.8993401527404785
-7.011662006378174,0.23439694941043854,2.854048013687134
-7.024306774139404,0.23423904180526733,2.8090779781341553
-7.036922454833984,0.23408973217010498,2.7641615867614746
-7.04953145980835,0.2339497059583664,2.719304323196411
-7.062142372131348,0.23381920158863068,2.6745052337646484
-7.074711322784424,0.23369669914245605,2.629744052886963
-7.087322235107422,0.2335849106311798,2.585047721862793
-7.099845886230469,0.23347952961921692,2.54036545753479
-7.112414360046387,0.2333848476409912,2.495741367340088
-7.124938488006592,0.2332978993654251,2.4511399269104004
-7.1375508308410645,0.23322296142578125,2.406602621078491
-7.151151180267334,0.23318931460380554,2.3624212741851807
-7.165430545806885,0.23318666219711304,2.318471670150757
-7.17977237701416,0.23319481313228607,2.2745413780212402
-7.194368839263916,0.2332199364900589,2.230684518814087
-7.209640979766846,0.2332756072282791,2.187020778656006
-7.226088047027588,0.23337776958942413,2.1436803340911865
-7.243031024932861,0.23350432515144348,2.10044002532959
-7.26020622253418,0.2336466908454895,2.0572116374969482
-7.277416706085205,0.23379845917224884,2.013932466506958
-7.2958855628967285,0.2339988648891449,1.9709290266036987
-7.314937591552734,0.2342260777950287,1.9279955625534058
-7.3340277671813965,0.23446260392665863,1.884977102279663
-7.353145122528076,0.2347080409526825,1.8418669700622559
-7.37229061126709,0.23496244847774506,1.7986618280410767
-7.391524314880371,0.23522773385047913,1.755372166633606
-7.4107255935668945,0.23550006747245789,1.7119652032852173
-7.43002462387085,0.23578357696533203,1.6684678792953491
-7.449414253234863,0.23607805371284485,1.624873399734497
-7.4687676429748535,0.2363794595003128,1.5811502933502197
-7.488582611083984,0.23670357465744019,1.537398099899292
-7.510214328765869,0.23709312081336975,1.4938745498657227
-7.533095359802246,0.23753002285957336,1.4504324197769165
-7.556203842163086,0.23798198997974396,1.4068547487258911
-7.579799175262451,0.23845720291137695,1.3631808757781982
-7.6037278175354,0.23895078897476196,1.3193719387054443
-7.629746913909912,0.2395179569721222,1.275712251663208
-7.657038688659668,0.2401328831911087,1.2320280075073242
-7.684694766998291,0.24076703190803528,1.188151478767395
-7.712539196014404,0.24141494929790497,1.1440471410751343
-7.740477085113525,0.2420736700296402,1.099694848060608
-7.768627166748047,0.2427469789981842,1.0551060438156128
-7.796864032745361,0.24343101680278778,1.010257601737976
-7.825313091278076,0.24412976205348969,0.9651603102684021
-7.853960990905762,0.24484281241893768,0.919805645942688
-7.885325908660889,0.24564869701862335,0.8744661808013916
-7.918158531188965,0.2465084195137024,0.8289573192596436
-7.951725006103516,0.24739915132522583,0.7831765413284302
-7.986214637756348,0.24832680821418762,0.7371245622634888
-8.02194881439209,0.2493014633655548,0.6908089518547058
-8.062018394470215,0.25041911005973816,0.6444504261016846
-8.102725982666016,0.2515648901462555,0.5976929664611816
-8.143686294555664,0.2527269423007965,0.5504955649375916
-8.18506145477295,0.25391045212745667,0.5028603076934814
-8.22685432434082,0.2551155388355255,0.4547765254974365
-8.268911361694336,0.25633761286735535,0.4062255620956421
-8.313970565795898,0.2576616108417511,0.3573169410228729
-8.363668441772461,0.2591383755207062,0.308052122592926
-8.415102005004883,0.2606779932975769,0.2582531273365021
-8.468666076660156,0.2622928023338318,0.20789407193660736
-8.528657913208008,0.2641160786151886,0.15701130032539368
-8.59228801727295,0.26606154441833496,0.10544853657484055
-8.65687084197998,0.26804620027542114,0.05311856046319008
-8.722428321838379,0.27007099986076355,1.6022311117628815e-15
-8.789084434509277,0.2721399962902069,-0.05392982065677643
-8.867732048034668,0.27459070086479187,-0.10882890969514847
-8.950730323791504,0.2771868407726288,-0.1647816002368927
-9.040851593017578,0.28001463413238525,-0.22194045782089233
-9.147714614868164,0.2833724319934845,-0.28073644638061523
-9.256718635559082,0.28680846095085144,-0.34094512462615967
-9.370240211486816,0.29039689898490906,-0.40271317958831787
-9.50156307220459,0.2945500314235687,-0.4667818546295166
-9.672709465026855,0.2999516427516937,-0.5347026586532593
-9.885075569152832,0.3066469132900238,-0.6073030233383179
-11.257567405700684,0.3493615388870239,-0.7609871625900269
-14.775566101074219,0.7679935693740845,-19.922544479370117
-14.227673530578613,0.7456990480422974,-19.431865692138672
-13.809027671813965,0.7298874258995056,-19.10492706298828
-13.28120231628418,0.7080124616622925,-18.61418914794922
-13.145220756530762,0.7068554162979126,-18.664779663085938
-12.98167896270752,0.7042098641395569,-18.6749267578125
-12.624696731567383,0.6909567713737488,-18.40127944946289
-12.274914741516113,0.6778884530067444,-18.128908157348633
-11.826078414916992,0.6590863466262817,-17.698976516723633
-11.491636276245117,0.6463953852653503,-17.429014205932617
-11.163919448852539,0.633872389793396,-17.16017723083496
-10.842669486999512,0.6215057373046875,-16.892234802246094
-10.42809009552002,0.6035224795341492,-16.46775245666504
-10.121321678161621,0.591511070728302,-16.202417373657227
-9.820944786071777,0.5796610116958618,-15.938385009765625
-9.526732444763184,0.567962110042572,-15.67546272277832
-9.238619804382324,0.5564135909080505,-15.413705825805664
-8.956306457519531,0.5450002551078796,-15.152774810791016
-8.680150985717773,0.5337467789649963,-14.8934326171875
-8.409871101379395,0.5226393342018127,-14.635372161865234
-8.145303726196289,0.5116707682609558,-14.378472328186035
1.1248914003372192,0.13589686155319214,-6.041780948638916
1.147274374961853,0.13418139517307281,-5.958586692810059
1.1691310405731201,0.13251712918281555,-5.877618789672852
1.1904152631759644,0.13089437782764435,-5.79844856262207
1.2111908197402954,0.1293162703514099,-5.721216201782227
1.2313748598098755,0.12777042388916016,-5.645376205444336
1.2511481046676636,0.12627239525318146,-5.571615219116211
1.2705395221710205,0.12482118606567383,-5.499889850616455
1.2894238233566284,0.12340109795331955,-5.429508209228516
1.3079314231872559,0.12202194333076477,-5.360902786254883
1.3260177373886108,0.12067659944295883,-5.293759822845459
1.3437072038650513,0.11936476081609726,-5.228066444396973
1.3610395193099976,0.1180875152349472,-5.163870334625244
1.3780403137207031,0.11684461683034897,-5.101160049438477
1.3947293758392334,0.11563538014888763,-5.039904594421387
1.4109245538711548,0.11444280296564102,-4.979363441467285
1.4268372058868408,0.11328256875276566,-4.920219421386719
1.4423669576644897,0.1121448203921318,-4.862044811248779
1.4575878381729126,0.11103379726409912,-4.805023193359375
1.4725713729858398,0.10995320230722427,-4.749313831329346
1.4872064590454102,0.10889308899641037,-4.694486618041992
1.501569151878357,0.10785771906375885,-4.6407246589660645
1.5156748294830322,0.10684675723314285,-4.588013172149658
1.5295337438583374,0.10585954040288925,-4.536322116851807
1.543189287185669,0.10489770025014877,-4.485720634460449
1.5566025972366333,0.10395727306604385,-4.436037540435791
1.5697884559631348,0.10303808003664017,-4.387264728546143
1.582750678062439,0.10213926434516907,-4.339364528656006
1.5954771041870117,0.1012590155005455,-4.292258262634277
1.6078994274139404,0.10039211809635162,-4.245725154876709
1.6201145648956299,0.09954385459423065,-4.199989318847656
1.6321706771850586,0.09871621429920197,-4.15513277053833
1.64400315284729,0.09790438413619995,-4.1109514236450195
1.6556034088134766,0.09710709750652313,-4.067391395568848
1.6670109033584595,0.09632596373558044,-4.024520397186279
1.6851844787597656,0.0959564670920372,-3.9988179206848145
1.7128111124038696,0.09613168984651566,-3.9956858158111572
1.741956353187561,0.09638956934213638,-3.99579119682312
1.7712595462799072,0.09665248543024063,-3.9958975315093994
1.8007243871688843,0.09692052006721497,-3.996004819869995
1.8303539752960205,0.09719369560480118,-3.996112108230591
1.8601518869400024,0.09747207909822464,-3.9962193965911865
1.8901225328445435,0.09775577485561371,-3.996328353881836
1.9202693700790405,0.09804484248161316,-3.9964380264282227
1.9505958557128906,0.09833931177854538,-3.9965476989746094
1.9811065196990967,0.09863929450511932,-3.9966585636138916
2.0118048191070557,0.09894484281539917,-3.996769905090332
2.0426950454711914,0.09925603121519089,-3.9968814849853516
2.0737810134887695,0.09957293421030045,-3.99699330329895
2.1050682067871094,0.09989567846059799,-3.99710750579834
2.136559247970581,0.10022427141666412,-3.997220993041992
2.168259620666504,0.10055885463953018,-3.9973361492156982
2.2001731395721436,0.10089945048093796,-3.997450590133667
2.2323055267333984,0.10124623030424118,-3.9975674152374268
2.264659881591797,0.10159920901060104,-3.9976837635040283
2.297243118286133,0.10195855051279068,-3.997802734375
2.3300576210021973,0.10232426226139069,-3.997920513153076
2.363110303878784,0.10269652307033539,-3.9980406761169434
2.3964052200317383,0.10307536274194717,-3.9981606006622314
2.9204344749450684,0.1243445873260498,-4.805336952209473
2.9320759773254395,0.1235947534441948,-4.758458614349365
2.943537473678589,0.12285680323839188,-4.712074279785156
2.9550464153289795,0.12213974446058273,-4.666528224945068
2.966437339782715,0.12143617868423462,-4.621532440185547
2.9776182174682617,0.12074194103479385,-4.576927661895752
2.9887354373931885,0.12006262689828873,-4.532924175262451
2.9997098445892334,0.11939463764429092,-4.489382743835449
3.0105199813842773,0.11873678863048553,-4.446258544921875
3.021256923675537,0.11809231340885162,-4.403669834136963
3.0318379402160645,0.11745762825012207,-4.361481666564941
3.0422427654266357,0.11683166772127151,-4.319652557373047
3.0526089668273926,0.1162194162607193,-4.2783660888671875
3.0627732276916504,0.11561431735754013,-4.237377643585205
3.0729124546051025,0.11502278596162796,-4.196920871734619
3.0828776359558105,0.11443892866373062,-4.1567792892456055
3.0927209854125977,0.11386442929506302,-4.117012977600098
3.1025075912475586,0.11330141872167587,-4.077696323394775
3.112168073654175,0.11274708807468414,-4.038725852966309
3.1266510486602783,0.1123790442943573,-4.006433010101318
3.162041425704956,0.1127665638923645,-4.000921726226807
3.2022342681884766,0.11332228034734726,-4.001065254211426
3.2428274154663086,0.11388783156871796,-4.001210689544678
3.283830404281616,0.11446341127157211,-4.001358985900879
3.3252511024475098,0.11504919081926346,-4.0015082359313965
3.3670990467071533,0.11564535647630692,-4.0016584396362305
3.4093844890594482,0.11625213176012039,-4.001810550689697
3.4521188735961914,0.11686976253986359,-4.001965045928955
3.4953103065490723,0.11749842017889023,-4.002120494842529
3.5389697551727295,0.11813830584287643,-4.002276420593262
3.5831096172332764,0.11878972500562668,-4.002434730529785
3.627741813659668,0.11945292353630066,-4.002596378326416
3.6728761196136475,0.1201280951499939,-4.002758502960205
3.7185239791870117,0.1208154708147049,-4.0029215812683105
3.764700174331665,0.12151540815830231,-4.003087997436523
3.811415433883667,0.12222809344530106,-4.0032548904418945
8.311113357543945,0.1883590668439865,-1.8663229942321777
8.311307907104492,0.18810781836509705,-1.8128703832626343
8.311500549316406,0.187864288687706,-1.759558081626892
8.31169319152832,0.18762844800949097,-1.7063817977905273
8.311884880065918,0.1874002367258072,-1.653336763381958
8.3120756149292,0.18717961013317108,-1.6004183292388916
8.31226634979248,0.18696653842926025,-1.547622561454773
8.312457084655762,0.18676099181175232,-1.4949450492858887
8.312646865844727,0.1865628957748413,-1.4423811435699463
8.312836647033691,0.18637223541736603,-1.3899266719818115
8.313026428222656,0.1861889809370041,-1.3375773429870605
8.313215255737305,0.18601305782794952,-1.2853288650512695
8.31340217590332,0.18584443628787994,-1.233176827430725
8.313591957092285,0.18568317592144012,-1.1811176538467407
8.313779830932617,0.18552911281585693,-1.1291465759277344
8.313966751098633,0.18538229167461395,-1.0772597789764404
8.314153671264648,0.1852426826953888,-1.0254530906677246
8.314340591430664,0.18511024117469788,-0.9737223982810974
8.31452751159668,0.18498495221138,-0.9220637679100037
8.314715385437012,0.18486681580543518,-0.8704730868339539
8.314902305603027,0.18475575745105743,-0.818946361541748
8.31508731842041,0.18465176224708557,-0.767479419708252
8.31527328491211,0.1845548450946808,-0.7160685062408447
8.31545639038086,0.18446491658687592,-0.6647094488143921
8.315642356872559,0.18438208103179932,-0.6133986711502075
8.315826416015625,0.18430620431900024,-0.5621318817138672
8.316012382507324,0.18423739075660706,-0.5109055042266846
8.316198348999023,0.1841755360364914,-0.4597153663635254
8.31638240814209,0.18412062525749207,-0.408557653427124
8.316566467285156,0.18407268822193146,-0.35742852091789246
8.316751480102539,0.18403172492980957,-0.3063240945339203
8.316935539245605,0.18399767577648163,-0.25524047017097473
8.317120552062988,0.1839705854654312,-0.20417384803295135
8.317303657531738,0.18395037949085236,-0.15312029421329498
8.317487716674805,0.18393714725971222,-0.10207605361938477
8.317671775817871,0.18393081426620483,-0.05103723332285881
8.317855834960938,0.18393142521381378,-5.093049234371314e-16
8.31804084777832,0.18393898010253906,0.051039498299360275
8.31822395324707,0.1839534193277359,0.10208509117364883
8.318408012390137,0.18397481739521027,0.15314063429832458
8.318591117858887,0.18400311470031738,0.20420995354652405
8.318775177001953,0.18403835594654083,0.255296915769577
8.318960189819336,0.1840805858373642,0.3064054548740387
8.319144248962402,0.1841297298669815,0.3575392961502075
8.319328308105469,0.18418586254119873,0.40870240330696106
8.319511413574219,0.1842489242553711,0.45989856123924255
8.319696426391602,0.18431900441646576,0.5111318230628967
8.319881439208984,0.18439608812332153,0.5624060034751892
8.320067405700684,0.1844801902770996,0.6137250065803528
8.320252418518066,0.1845713108778,0.6650927662849426
8.32043743133545,0.18466946482658386,0.7165132761001587
8.320623397827148,0.18477469682693481,0.7679903507232666
8.320809364318848,0.18488702178001404,0.8195282220840454
8.320993423461914,0.18500639498233795,0.8711304068565369
8.321179389953613,0.1851329356431961,0.9228014349937439
12.068150520324707,0.2686849534511566,1.4133446216583252
4.188185214996338,0.16083945333957672,5.946765899658203
4.09055233001709,0.15847370028495789,5.8845062255859375
4.016209602355957,0.1569821834564209,5.853875637054443
3.9496097564697266,0.1557750701904297,5.833206653594971
3.890421152114868,0.15484678745269775,5.822426795959473
3.8332862854003906,0.15398968756198883,5.813828945159912
3.7792606353759766,0.15324842929840088,5.809140682220459
3.7275760173797607,0.1525946855545044,5.807341575622559
3.6781551837921143,0.15202771127223969,5.808441638946533
3.6307365894317627,0.15153898298740387,5.812156677246094
3.584376335144043,0.15109093487262726,5.817074775695801
3.5400960445404053,0.15072818100452423,5.824939727783203
3.4968583583831787,0.15040861070156097,5.834156036376953
3.0885860919952393,0.13422438502311707,5.225440502166748
2.9631545543670654,0.13012665510177612,5.084190368652344
2.9215962886810303,0.1296692192554474,5.0843400955200195
2.880326509475708,0.12921980023384094,5.084487438201904
2.839340925216675,0.12877832353115082,5.084634304046631
2.7986323833465576,0.12834466993808746,5.084779262542725
2.7581963539123535,0.12791875004768372,5.084925174713135
2.7180252075195312,0.12750037014484406,5.085067272186279
2.6781153678894043,0.12708954513072968,5.085210800170898
2.6384599208831787,0.12668608129024506,5.085351943969727
2.5990543365478516,0.12628993391990662,5.085493564605713
2.5598936080932617,0.1259010136127472,5.085635185241699
2.520970344543457,0.12551911175251007,5.08577299118042
2.4822821617126465,0.12514427304267883,5.085911750793457
2.4438226222991943,0.12477634847164154,5.086050033569336
2.4055871963500977,0.12441523373126984,5.086186408996582
2.367570400238037,0.12406084686517715,5.086321830749512
2.3418595790863037,0.12435516715049744,5.112854480743408
2.3401641845703125,0.12595482170581818,5.193080425262451
2.3404624462127686,0.12771223485469818,5.279998779296875
2.340841770172119,0.12952835857868195,5.369546413421631
2.341306209564209,0.1314060389995575,5.461853981018066
2.341824769973755,0.13334637880325317,5.556976795196533
2.34211802482605,0.13533610105514526,5.6543731689453125
2.3425934314727783,0.1374015361070633,5.755149841308594
2.3429782390594482,0.13953004777431488,5.858789920806885
2.343311309814453,0.14172710478305817,5.965534210205078
2.3439841270446777,0.1440201848745346,6.076550483703613
2.344407320022583,0.1463773250579834,6.190505027770996
2.345024347305298,0.14883001148700714,6.308740139007568
2.3455214500427246,0.15136297047138214,6.430622577667236
2.3460440635681152,0.15399008989334106,6.556753635406494
2.3464395999908447,0.1567063182592392,6.686931133270264
2.347027540206909,0.15953829884529114,6.8223066329956055
2.3475775718688965,0.16247662901878357,6.962492942810059
2.3481905460357666,0.16553455591201782,7.108074188232422
2.3488645553588867,0.16871894896030426,7.259361743927002
2.3494410514831543,0.17202581465244293,7.416199684143066
2.350188970565796,0.17548269033432007,7.579792499542236
2.350907564163208,0.1790836751461029,7.749903678894043
2.3515310287475586,0.18283282220363617,7.926726818084717
-7.788785934448242,0.2239389419555664,6.472476482391357
-7.6145734786987305,0.21782352030277252,6.249118804931641
-7.494807720184326,0.21332727372646332,6.074253559112549
-7.395932197570801,0.20947518944740295,5.919300556182861
-7.316396713256836,0.20621371269226074,5.782354831695557
-7.258184432983398,0.203589528799057,5.664342403411865
-7.211752414703369,0.2013268768787384,5.557244300842285
-7.171771049499512,0.1992722898721695,5.456628799438477
-7.132893085479736,0.19727477431297302,5.358265399932861
-7.094832420349121,0.19532549381256104,5.261886119842529
-7.059147834777832,0.19346630573272705,5.168584823608398
-7.032905578613281,0.19188864529132843,5.083378791809082
-7.009071350097656,0.1903975009918213,5.000964164733887
-6.990697383880615,0.18907418847084045,4.923404693603516
-6.975706100463867,0.18786044418811798,4.849088668823242
-6.960945129394531,0.1866702288389206,4.775744915008545
-6.946317195892334,0.18550054728984833,4.703286647796631
-6.931911468505859,0.18435341119766235,4.6317548751831055
-6.917665958404541,0.1832268089056015,4.561089515686035
-6.906541347503662,0.18219846487045288,4.493197917938232
-6.898643493652344,0.18126992881298065,4.428053379058838
-6.891905307769775,0.18038582801818848,4.364250659942627
-6.8871870040893555,0.17956800758838654,4.302286624908447
-6.885532855987549,0.17884273827075958,4.242740631103516
-6.884124279022217,0.17813600599765778,4.183813571929932
-6.882723808288574,0.17744141817092896,4.125345706939697
-6.881321430206299,0.1767585277557373,4.067322731018066
-6.87994384765625,0.17608784139156342,4.009750843048096
-6.878568649291992,0.1754285842180252,3.9526071548461914
-6.877208232879639,0.174780935049057,3.895890474319458
-6.87631368637085,0.17415612936019897,3.839843273162842
-6.878291130065918,0.17361460626125336,3.7857704162597656
-6.88098669052124,0.17310132086277008,3.7324273586273193
-6.884374618530273,0.17261528968811035,3.6797749996185303
-6.888828754425049,0.17216554284095764,3.6279869079589844
-6.894805908203125,0.1717631220817566,3.577268123626709
-6.901309013366699,0.17138275504112244,3.527067184448242
-6.907784938812256,0.17101052403450012,3.4770865440368652
-6.914242267608643,0.1706465482711792,3.42732572555542
-6.920660495758057,0.17029021680355072,3.3777682781219482
-6.927051067352295,0.1699417382478714,3.3284149169921875
-6.933431148529053,0.1696014106273651,3.279268741607666
-6.93977165222168,0.16926847398281097,3.2303102016448975
-6.946094036102295,0.1689433455467224,3.1815450191497803
-6.952834129333496,0.1686365008354187,3.1331639289855957
-6.960838794708252,0.16836827993392944,3.0855276584625244
-6.9697136878967285,0.1681288182735443,3.038431167602539
-6.979297161102295,0.167914018034935,2.991781234741211
-6.989490509033203,0.16772125661373138,2.9455156326293945
-7.000576972961426,0.16755717992782593,2.899733781814575
-7.012853145599365,0.1674286425113678,2.8545329570770264
-7.025511264801025,0.16731610894203186,2.8095595836639404
-7.038120746612549,0.16720925271511078,2.764632225036621
-7.050723075866699,0.16710902750492096,2.719763994216919
-7.063338756561279,0.16701588034629822,2.6749584674835205
-7.075911045074463,0.16692839562892914,2.630189895629883
-7.088525772094727,0.1668485850095749,2.585486650466919
-7.101053714752197,0.16677336394786835,2.540797472000122
-7.113625526428223,0.16670577228069305,2.496166467666626
-7.126153469085693,0.16664370894432068,2.4515578746795654
-7.13873815536499,0.16658948361873627,2.4070029258728027
-7.1519317626953125,0.16655591130256653,2.3626790046691895
-7.165643215179443,0.16654078662395477,2.318540573120117
-7.179769039154053,0.16654159128665924,2.274540424346924
-7.194520950317383,0.16656313836574554,2.230731725692749
-7.209936618804932,0.16660620272159576,2.187110424041748
-7.226171493530273,0.16667425632476807,2.143705129623413
-7.243021488189697,0.16676250100135803,2.1004374027252197
-7.260586261749268,0.16687311232089996,2.057319164276123
-7.278430461883545,0.166996031999588,2.0142130851745605
-7.297110557556152,0.16714395582675934,1.9712600708007812
-7.316177845001221,0.16730652749538422,1.928322434425354
-7.335262775421143,0.16747526824474335,1.8852944374084473
-7.354385852813721,0.16765065491199493,1.8421777486801147
-7.373537540435791,0.16783244907855988,1.7989660501480103
-7.392777442932129,0.1680220067501068,1.7556697130203247
-7.411982536315918,0.1682165414094925,1.712255597114563
-7.431277275085449,0.16841886937618256,1.6687490940093994
-7.450682640075684,0.1686294972896576,1.6251500844955444
-7.470032691955566,0.16884464025497437,1.5814180374145508
-7.489719390869141,0.1690731793642044,1.5376315116882324
-7.5105085372924805,0.169332355260849,1.493933081626892
-7.532440662384033,0.169623002409935,1.4503064155578613
-7.555276393890381,0.16993968188762665,1.4066821336746216
-7.579301357269287,0.17028872668743134,1.3630913496017456
-7.604340076446533,0.1706661731004715,1.319478154182434
-7.630889892578125,0.17108312249183655,1.2759034633636475
-7.65825080871582,0.1715238094329834,1.2322230339050293
-7.685903549194336,0.17197659611701965,1.1883383989334106
-7.713766574859619,0.17243970930576324,1.1442291736602783
-7.741711616516113,0.17291028797626495,1.099870204925537
-7.769859790802002,0.17339108884334564,1.055273413658142
-7.798113822937012,0.1738799661397934,1.010419487953186
-7.826560974121094,0.1743789166212082,0.9653142094612122
-7.8552165031433105,0.17488831281661987,0.9199526906013489
-7.885561943054199,0.17544114589691162,0.874492347240448
-7.917169570922852,0.17602789402008057,0.8288537859916687
-7.95067024230957,0.1766625940799713,0.7830726504325867
-7.98620080947876,0.17734822630882263,0.7371233105659485
-8.023574829101562,0.1780806928873062,0.6909489035606384
-8.063697814941406,0.17888006567955017,0.6445847153663635
-8.10442066192627,0.17969867587089539,0.5978180170059204
-8.145395278930664,0.1805288940668106,0.550611138343811
-8.186785697937012,0.1813744306564331,0.5029662251472473
-8.228594779968262,0.18223541975021362,0.454872727394104
-8.270668029785156,0.18310855329036713,0.40631189942359924
-8.314794540405273,0.18403346836566925,0.3573523759841919
-8.362162590026855,0.1850365698337555,0.3079966902732849
-8.413555145263672,0.1861352026462555,0.2582056522369385
-8.469709396362305,0.18734575808048248,0.20791968703269958
-8.530808448791504,0.18867237865924835,0.15705089271068573
-8.594467163085938,0.19006240367889404,0.1054752767086029
-8.659078598022461,0.19148044288158417,0.053132109344005585
-8.7246675491333,0.19292718172073364,1.6026424521378918e-15
-8.791303634643555,0.19440436363220215,-0.053943440318107605
-8.865608215332031,0.19605855643749237,-0.10880284756422043
-8.948601722717285,0.1979125440120697,-0.1647423952817917
-9.044086456298828,0.2000506967306137,-0.22201985120773315
-9.150988578796387,0.20244961977005005,-0.28083691000938416
-9.260055541992188,0.20490498840808868,-0.3410680294036865
-9.37295150756836,0.20745393633842468,-0.40282973647117615
-9.501260757446289,0.21035327017307281,-0.4667670428752899
-9.670397758483887,0.21416644752025604,-0.5345748662948608
-9.889894485473633,0.21910598874092102,-0.6075990200042725
-11.25210189819336,0.24938377737998962,-0.760617733001709
-12.390328407287598,0.3898733854293823,-12.54332160949707
-11.76063346862793,0.3723795413970947,-12.05288314819336
-11.14437484741211,0.35510653257369995,-11.562403678894043
-10.38548755645752,0.3330516815185547,-10.908218383789062
-9.797271728515625,0.31623220443725586,-10.417652130126953
-9.221755981445312,0.29961642622947693,-9.927048683166504
-8.658717155456543,0.2831990718841553,-9.436407089233398
-8.273226737976074,0.27241772413253784,-9.12809944152832
-7.780754089355469,0.2579529285430908,-8.691322326660156
-7.300842761993408,0.24371759593486786,-8.256637573242188
-7.1173930168151855,0.23925842344760895,-8.149394989013672
-7.077996253967285,0.23962204158306122,-8.205365180969238
-7.038509845733643,0.23999691009521484,-8.261544227600098
-6.998887538909912,0.24038165807724,-8.317889213562012
-6.9592695236206055,0.24078130722045898,-8.374577522277832
-6.919713973999023,0.24119822680950165,-8.431695938110352
-6.879707336425781,0.24161472916603088,-8.488628387451172
-6.839452266693115,0.24203798174858093,-8.545625686645508
-6.5447916984558105,0.23340417444705963,-8.281105995178223
-6.217785835266113,0.22348156571388245,-7.967356204986572
-6.139726161956787,0.22242893278598785,-7.967651844024658
-6.062394142150879,0.22139441967010498,-7.967942237854004
-5.985774517059326,0.22037771344184875,-7.9682297706604
-5.909852981567383,0.2193785458803177,-7.968514442443848
-5.834613800048828,0.21839655935764313,-7.968796253204346
-5.760044097900391,0.21743156015872955,-7.969078540802002
-5.686125755310059,0.21648308634757996,-7.969355583190918
-5.967417240142822,0.22916755080223083,-8.473081588745117
-6.337829113006592,0.24553632736206055,-9.117348670959473
-6.294910907745361,0.24605010449886322,-9.175224304199219
-6.2519001960754395,0.24657884240150452,-9.233475685119629
-6.208671569824219,0.24711793661117554,-9.291933059692383
-6.165186405181885,0.2476661205291748,-9.350550651550293
-6.12154483795166,0.24822767078876495,-9.409490585327148
-6.077591419219971,0.24879658222198486,-9.468525886535645
-6.033482074737549,0.249379500746727,-9.527909278869629
-5.989268779754639,0.2499789446592331,-9.58774185180664
-5.944824695587158,0.25059008598327637,-9.64784049987793
-5.900218963623047,0.2512161433696747,-9.708330154418945
-5.855275630950928,0.2518500089645386,-9.768937110900879
-5.809950828552246,0.25249001383781433,-9.829595565795898
-5.764555931091309,0.25314995646476746,-9.890844345092773
-5.719028949737549,0.25382769107818604,-9.952603340148926
-5.673172950744629,0.25451499223709106,-10.014551162719727
1.1247895956039429,0.08152223378419876,-6.041234493255615
1.1471649408340454,0.08049276471138,-5.9580183029174805
1.169019341468811,0.07949438691139221,-5.877057075500488
1.1903148889541626,0.07852181047201157,-5.797959327697754
1.2111066579818726,0.07757627964019775,-5.720818996429443
1.2312918901443481,0.07664909958839417,-5.64499568939209
1.2510662078857422,0.07575058192014694,-5.571250915527344
1.2704582214355469,0.07488010823726654,-5.499537944793701
1.2893410921096802,0.07402818650007248,-5.429160118103027
1.3078473806381226,0.07320082932710648,-5.36055850982666
1.3259317874908447,0.07239371538162231,-5.293416500091553
1.3436107635498047,0.07160624861717224,-5.227691173553467
1.360918641090393,0.07083883136510849,-5.163411617279053
1.3779138326644897,0.07009302079677582,-5.100691795349121
1.3946011066436768,0.06936760991811752,-5.039441108703613
1.4107944965362549,0.0686521902680397,-4.9789042472839355
1.4267054796218872,0.06795617938041687,-4.919765472412109
1.4422345161437988,0.06727369874715805,-4.861598491668701
1.4574538469314575,0.06660719960927963,-4.804581165313721
1.4724358320236206,0.06595896184444427,-4.748876571655273
1.4870694875717163,0.06532302498817444,-4.694054126739502
1.5014265775680542,0.06470173597335815,-4.640284061431885
1.515523910522461,0.06409499049186707,-4.5875563621521
1.5293798446655273,0.0635027140378952,-4.535865783691406
1.54302978515625,0.0629255548119545,-4.485257148742676
1.5564395189285278,0.06236131861805916,-4.435572624206543
1.5696229934692383,0.06180988624691963,-4.3868021965026855
1.5825730562210083,0.06127029284834862,-4.338877201080322
1.595267653465271,0.06074109673500061,-4.291694641113281
1.6076762676239014,0.0602206289768219,-4.245136260986328
1.619890570640564,0.059711821377277374,-4.199408054351807
1.6319457292556763,0.05921539291739464,-4.154560089111328
1.6437785625457764,0.05872848257422447,-4.110389709472656
1.6553804874420166,0.05825033783912659,-4.0668439865112305
1.6668168306350708,0.057782821357250214,-4.024051666259766
1.6850520372390747,0.05756334960460663,-3.9985036849975586
1.712689995765686,0.05766892060637474,-3.995403289794922
1.7418333292007446,0.05782362446188927,-3.995508909225464
1.7711347341537476,0.05798136070370674,-3.9956159591674805
1.8005975484848022,0.058142147958278656,-3.995723247528076
1.8302252292633057,0.05830603092908859,-3.99583101272583
1.8600215911865234,0.058473050594329834,-3.9959394931793213
1.8899903297424316,0.05864324793219566,-3.996048927307129
1.9201347827911377,0.05881664529442787,-3.9961578845977783
1.9504591226577759,0.058993298560380936,-3.996267557144165
1.9809683561325073,0.059173278510570526,-3.996379852294922
2.011664628982544,0.059356577694416046,-3.9964914321899414
2.0425527095794678,0.05954325944185257,-3.996602773666382
2.073636770248413,0.05973337963223457,-3.996715545654297
2.104922294616699,0.05992700159549713,-3.996830463409424
2.136411428451538,0.06012413278222084,-3.9969444274902344
2.16810941696167,0.06032484024763107,-3.9970591068267822
2.200021266937256,0.060529179871082306,-3.9971747398376465
2.232151508331299,0.06073721870779991,-3.9972920417785645
2.264504909515381,0.06094899773597717,-3.997410297393799
2.2970855236053467,0.06116455793380737,-3.997528553009033
2.3298983573913574,0.061383962631225586,-3.997647762298584
2.3629486560821533,0.06160727143287659,-3.997767210006714
2.3962419033050537,0.06183455511927605,-3.9978878498077393
2.9201464653015137,0.07459161430597305,-4.804863452911377
2.931805372238159,0.07414227724075317,-4.75801944732666
2.9432663917541504,0.07369960844516754,-4.711640357971191
2.954773426055908,0.07326943427324295,-4.666097164154053
2.966154098510742,0.0728471577167511,-4.621091365814209
2.9773263931274414,0.07243051379919052,-4.576479434967041
2.9884419441223145,0.07202298939228058,-4.5324788093566895
2.999415397644043,0.07162228226661682,-4.4889421463012695
3.0102241039276123,0.07122763991355896,-4.445821285247803
3.020960569381714,0.07084105163812637,-4.403237819671631
3.031566858291626,0.07046093046665192,-4.361091613769531
3.042001247406006,0.07008612900972366,-4.319310188293457
3.05236554145813,0.06971881538629532,-4.278024673461914
3.0625290870666504,0.06935582309961319,-4.237039566040039
3.072664976119995,0.06900092214345932,-4.196583271026611
3.0826144218444824,0.06865032762289047,-4.156424522399902
3.092451810836792,0.06830558180809021,-4.116654396057129
3.1022369861602783,0.06796783208847046,-4.077340126037598
3.1118969917297363,0.06763529777526855,-4.038373947143555
3.1264140605926514,0.06741528958082199,-4.006129264831543
3.1618378162384033,0.06764853000640869,-4.000664234161377
3.202029228210449,0.06798192113637924,-4.000809192657471
3.2426207065582275,0.06832121312618256,-4.000955581665039
3.283621072769165,0.06866651028394699,-4.00110387802124
3.325039863586426,0.0690179318189621,-4.001254081726074
3.366886615753174,0.06937559694051743,-4.001405715942383
3.4091696739196777,0.06973960995674133,-4.001558303833008
3.451901912689209,0.07011014223098755,-4.001713275909424
3.495091199874878,0.07048728317022324,-4.0018696784973145
3.5387492179870605,0.07087117433547974,-4.0020270347595215
3.5828874111175537,0.07126197963953018,-4.002186298370361
3.627516508102417,0.07165982574224472,-4.002347946166992
3.6726489067077637,0.07206488400697708,-4.002511024475098
3.7182953357696533,0.07247726619243622,-4.002675533294678
3.7644693851470947,0.07289716601371765,-4.002842426300049
3.8111839294433594,0.07332475483417511,-4.003011703491211
8.310221672058105,0.11299152672290802,-1.8661227226257324
8.310416221618652,0.11284082382917404,-1.8126760721206665
8.310609817504883,0.11269474774599075,-1.7593697309494019
8.310802459716797,0.11255326867103577,-1.706199049949646
8.310995101928711,0.11241637915372849,-1.653159737586975
8.311184883117676,0.11228401213884354,-1.600246787071228
8.311375617980957,0.1121562048792839,-1.5474568605422974
8.311567306518555,0.11203291267156601,-1.4947850704193115
8.31175708770752,0.11191407591104507,-1.442226529121399
8.311945915222168,0.1117997020483017,-1.389777660369873
8.312135696411133,0.11168976128101349,-1.337433934211731
8.312325477600098,0.11158424615859985,-1.2851911783218384
8.312514305114746,0.1114831194281578,-1.233044981956482
8.312701225280762,0.11138633638620377,-1.1809910535812378
8.312889099121094,0.11129394173622131,-1.1290256977081299
8.31307601928711,0.11120586842298508,-1.0771443843841553
8.313263893127441,0.11112211644649506,-1.0253432989120483
8.31344985961914,0.11104265600442886,-0.9736180901527405
8.313636779785156,0.11096750199794769,-0.9219649434089661
8.313822746276855,0.11089661717414856,-0.8703797459602356
8.314010620117188,0.11083001643419266,-0.8188585638999939
8.314196586608887,0.11076763272285461,-0.7673971652984619
8.31438159942627,0.11070949584245682,-0.7159917950630188
8.314566612243652,0.11065556108951569,-0.6646382808685303
8.314751625061035,0.11060585826635361,-0.6133329272270203
8.314936637878418,0.1105603575706482,-0.562071681022644
8.3151216506958,0.11051905900239944,-0.510850727558136
8.3153076171875,0.11048195511102676,-0.4596661329269409
8.31549072265625,0.11044901609420776,-0.4085138738155365
8.315675735473633,0.11042026430368423,-0.35739022493362427
8.315860748291016,0.11039567738771439,-0.30629128217697144
8.316044807434082,0.11037526279687881,-0.2552131414413452
8.316228866577148,0.11035900563001633,-0.2041519731283188
8.316412925720215,0.11034689843654633,-0.15310390293598175
8.316596984863281,0.11033895611763,-0.10206512361764908
8.316781044006348,0.11033517122268677,-0.051031772047281265
8.31696605682373,0.11033553630113602,-5.092504486307111e-16
8.317148208618164,0.11034004390239716,0.051034025847911835
8.317334175109863,0.11034873127937317,0.10207416862249374
8.317517280578613,0.11036154627799988,0.15312422811985016
8.317700386047363,0.11037852615118027,0.20418807864189148
8.317885398864746,0.11039969325065613,0.2552696168422699
8.318068504333496,0.11042499542236328,0.30637258291244507
8.318252563476562,0.11045447736978531,0.35750097036361694
8.318437576293945,0.1104881539940834,0.4086586534976959
8.318621635437012,0.11052599549293518,0.45984935760498047
8.318805694580078,0.11056801676750183,0.5110770463943481
8.318989753723145,0.11061425507068634,0.5623457431793213
8.319175720214844,0.11066471040248871,0.6136592626571655
8.319360733032227,0.11071937531232834,0.665021538734436
8.319546699523926,0.11077826470136642,0.716436505317688
8.319731712341309,0.11084137856960297,0.7679080367088318
8.319917678833008,0.11090875416994095,0.8194403052330017
8.320101737976074,0.11098036915063858,0.8710370063781738
8.320287704467773,0.11105628311634064,0.9227025508880615
11.7542085647583,0.1570008397102356,1.3765777349472046
4.190124988555908,0.09653830528259277,5.949520587921143
4.090088844299316,0.09506352990865707,5.883839130401611
4.014744281768799,0.09414511173963547,5.851739406585693
3.949615955352783,0.09345544129610062,5.833215713500977
3.8883538246154785,0.0928490161895752,5.819332599639893
3.8331494331359863,0.09238088130950928,5.813621520996094
3.7799606323242188,0.0919564887881279,5.810216903686523
3.7272145748138428,0.09153839200735092,5.806778430938721
3.6771063804626465,0.09118110686540604,5.806785583496094
3.629957437515259,0.09089440107345581,5.810909271240234
3.5843825340270996,0.09064526855945587,5.817084789276123
3.539199113845825,0.09040457010269165,5.8234639167785645
3.496271848678589,0.0902206152677536,5.833177089691162
3.088223695755005,0.08051678538322449,5.224827289581299
2.9627227783203125,0.07805647701025009,5.083449840545654
2.921170949935913,0.07778210192918777,5.0836005210876465
2.8799080848693848,0.07751253247261047,5.083748817443848
