-7.007193088531494,0.9075538516044617,2.852228879928589
-7.017895221710205,0.9066925048828125,2.806513786315918
-7.0305070877075195,0.9061155915260315,2.76164174079895
-7.043274879455566,0.9055954813957214,2.716890811920166
-7.056032180786133,0.9051105380058289,2.6721913814544678
-7.068759918212891,0.9046580195426941,2.6275317668914795
-7.081567287445068,0.904251754283905,2.582948684692383
-7.094383716583252,0.9038824439048767,2.5384111404418945
-7.108395576477051,0.9037006497383118,2.4943313598632812
-7.122680187225342,0.9035881161689758,2.4503629207611084
-7.136975288391113,0.9035114645957947,2.4064085483551025
-7.1512770652771,0.9034698009490967,2.3624627590179443
-7.16558313369751,0.9034628868103027,2.31852126121521
-7.180143356323242,0.9035218954086304,2.2746589183807373
-7.195538520812988,0.9037194848060608,2.2310473918914795
-7.2116851806640625,0.904044508934021,2.187640905380249
-7.22881555557251,0.9045253396034241,2.1444895267486572
-7.246267795562744,0.9050787091255188,2.1013786792755127
-7.263801574707031,0.9056742191314697,2.058230400085449
-7.281292915344238,0.90629643201828,2.015005111694336
-7.298871994018555,0.9069615602493286,1.971735954284668
-7.317013263702393,0.9077281951904297,1.9285426139831543
-7.335955619812012,0.9086257815361023,1.8854725360870361
-7.35509729385376,0.909579336643219,1.8423559665679932
-7.374457836151123,0.910591185092926,1.7991905212402344
-7.393929958343506,0.9116480350494385,1.7559434175491333
-7.413510799407959,0.9127494692802429,1.7126085758209229
-7.433738708496094,0.9139615893363953,1.6693018674850464
-7.455057621002197,0.9153386950492859,1.6261043548583984
-7.477648735046387,0.9169026017189026,1.583030343055725
-7.5008931159973145,0.9185768961906433,1.539925456047058
-7.524194240570068,0.9202884435653687,1.4966553449630737
-7.547638416290283,0.9220479130744934,1.4532325267791748
-7.571050643920898,0.9238340258598328,1.4096190929412842
-7.594696044921875,0.9256791472434998,1.3658599853515625
-7.618398666381836,0.9275620579719543,1.3219175338745117
-7.642941951751709,0.9295780658721924,1.2779185771942139
-7.6689629554748535,0.9318044781684875,1.2339465618133545
-7.696394443511963,0.9342327117919922,1.1899604797363281
-7.724531173706055,0.9367770552635193,1.145825982093811
-7.752815246582031,0.9393698573112488,1.1014477014541626
-7.781318187713623,0.9420199394226074,1.0568296909332275
-7.810997009277344,0.9448433518409729,1.0120888948440552
-7.841741561889648,0.9478265643119812,0.9671865701675415
-7.874800205230713,0.9511204361915588,0.9222462177276611
-7.908205986022949,0.9544872641563416,0.8770034909248352
-7.941893577575684,0.9579194784164429,0.8314421772956848
-7.975737571716309,0.9614020586013794,0.7855415940284729
-8.010000228881836,0.9649671912193298,0.7393200397491455
-8.04641056060791,0.9688230752944946,0.6929154396057129
-8.085055351257324,0.9729803204536438,0.646291971206665
-8.126360893249512,0.9774900078773499,0.599436342716217
-8.16794490814209,0.9820660352706909,0.5521354079246521
-8.209955215454102,0.9867264628410339,0.5043897032737732
-8.253349304199219,0.9915866851806641,0.4562411606311798
-8.299302101135254,0.9967882633209229,0.40771856904029846
-8.350018501281738,1.002596139907837,0.3588661849498749
-8.401254653930664,1.0085011720657349,0.30943652987480164
-8.453128814697266,1.014518141746521,0.25942012667655945
-8.509866714477539,1.021154522895813,0.20890550315380096
-8.571981430053711,1.028472661972046,0.15780888497829437
-8.636796951293945,1.036151647567749,0.10599476844072342
-8.702628135681152,1.0439904928207397,0.053399328142404556
-8.770061492919922,1.0520601272583008,1.6109809621080184e-15
-8.844533920288086,1.0610136985778809,-0.05427005887031555
-8.926849365234375,1.0709490776062012,-0.10955441743135452
-9.016312599182129,1.081783652305603,-0.16598893702030182
-9.120379447937012,1.0944139957427979,-0.22389274835586548
-9.230341911315918,1.1077967882156372,-0.2832722067832947
-9.342636108398438,1.1215063333511353,-0.3441096842288971
-9.464223861694336,1.1363800764083862,-0.40675240755081177
-9.613391876220703,1.154617190361023,-0.47227567434310913
-9.837681770324707,1.1819339990615845,-0.5438222885131836
-10.105374336242676,1.214530348777771,-0.6208373308181763
-11.715499877929688,1.408603310585022,-0.7919424176216125
-7.862776279449463,1.1406108140945435,6.615943431854248
-7.629024505615234,1.101037859916687,6.339715480804443
-7.511822700500488,1.0786434412002563,6.164793491363525
-7.401028633117676,1.057429313659668,5.998249053955078
-7.31102991104126,1.0394213199615479,5.851349353790283
-7.250042915344238,1.0257327556610107,5.729913234710693
-7.200632572174072,1.0138448476791382,5.619428634643555
-7.159375190734863,1.0032507181167603,5.516883373260498
-7.120218753814697,0.9930868148803711,5.417405128479004
-7.081808567047119,0.9831581711769104,5.31989049911499
-7.048411846160889,0.9740504622459412,5.227458477020264
-7.022947311401367,0.9661529064178467,5.1420793533325195
-6.999027729034424,0.9585738778114319,5.058892250061035
-6.9754838943481445,0.9511488676071167,4.976999282836914
-6.957700252532959,0.944606363773346,4.900165557861328
-6.942462921142578,0.9384996891021729,4.825980186462402
-6.927917957305908,0.9325733184814453,4.753085613250732
-6.9135050773620605,0.9267492890357971,4.681069850921631
-6.90251350402832,0.9214649796485901,4.612112045288086
-6.894713401794434,0.9166826605796814,4.545956134796143
-6.887895107269287,0.9121032357215881,4.481067180633545
-6.881180286407471,0.907608151435852,4.416844367980957
-6.874500751495361,0.9031869769096375,4.353229522705078
-6.868349552154541,0.8989030122756958,4.290518760681152
-6.864027976989746,0.8949240446090698,4.229489803314209
-6.862324237823486,0.8913487195968628,4.170564651489258
-6.861061096191406,0.8878903388977051,4.112361431121826
-6.859806060791016,0.8844916820526123,4.054605960845947
-6.858954906463623,0.8812026381492615,3.9975178241729736
-6.860940456390381,0.8783332705497742,3.9424774646759033
-6.864109039306641,0.875667929649353,3.888469696044922
-6.8674845695495605,0.8730801939964294,3.8349130153656006
-6.870865345001221,0.8705435991287231,3.7816834449768066
-6.874208927154541,0.868052065372467,3.7287509441375732
-6.87753438949585,0.8656072616577148,3.6761186122894287
-6.880847454071045,0.8632094860076904,3.623783588409424
-6.884125709533691,0.8608551025390625,3.5717270374298096
-6.888704299926758,0.8587101101875305,3.520625114440918
-6.895047664642334,0.8568300604820251,3.470675230026245
-6.901602268218994,0.8550198674201965,3.421060085296631
-6.9081830978393555,0.853256106376648,3.371678590774536
-6.914986610412598,0.8515622019767761,3.322618007659912
-6.922496318817139,0.8499969840049744,3.274096965789795
-6.9323344230651855,0.848757803440094,3.2268483638763428
-6.94216775894165,0.847557008266449,3.179746627807617
-6.951963424682617,0.8463901877403259,3.1327714920043945
-6.961723327636719,0.8452571630477905,3.0859196186065674
-6.971465110778809,0.8441598415374756,3.0391948223114014
-6.981186866760254,0.8430976867675781,2.992591381072998
-6.99085807800293,0.8420666456222534,2.946091890335083
-7.000532150268555,0.8410729169845581,2.8997154235839844
-7.010189533233643,0.8401138186454773,2.8534486293792725
-7.020518779754639,0.8392713665962219,2.807563066482544
-7.0321879386901855,0.8386242985725403,2.7623019218444824
-7.044456481933594,0.8380832076072693,2.717346668243408
-7.057225227355957,0.8376355171203613,2.672642946243286
-7.0699896812438965,0.8372208476066589,2.627988815307617
-7.083142280578613,0.836885392665863,2.5835232734680176
-7.096506595611572,0.836607813835144,2.539170742034912
-7.110641956329346,0.8364535570144653,2.495119333267212
-7.124931335449219,0.8363494873046875,2.4511375427246094
-7.139231204986572,0.8362785577774048,2.4071693420410156
-7.153537750244141,0.8362400531768799,2.3632097244262695
-7.167848110198975,0.8362335562705994,2.319253921508789
-7.182353973388672,0.8362812995910645,2.2753591537475586
-7.19767427444458,0.8364549875259399,2.2317094802856445
-7.213906764984131,0.8367651700973511,2.18831467628479
-7.231092929840088,0.8372161388397217,2.145165205001831
-7.248549938201904,0.8377282023429871,2.1020405292510986
-7.266090393066406,0.8382795453071594,2.0588788986206055
-7.2835869789123535,0.8388553857803345,2.0156400203704834
-7.301168918609619,0.8394707441329956,1.9723564386367798
-7.31907320022583,0.8401525020599365,1.929085612297058
-7.337453365325928,0.840918242931366,1.8858574628829956
-7.356300354003906,0.8417665958404541,1.8426573276519775
-7.375672340393066,0.8427038788795471,1.799486756324768
-7.395145416259766,0.8436816930770874,1.7562320232391357
-7.414934158325195,0.8447242975234985,1.7129374742507935
-7.435986042022705,0.8459393978118896,1.6698064804077148
-7.458201885223389,0.84731525182724,1.626790165901184
-7.4810566902160645,0.8487917184829712,1.5837517976760864
-7.504314422607422,0.8503419160842896,1.5406277179718018
-7.527629852294922,0.8519267439842224,1.4973386526107788
-7.55108642578125,0.8535557389259338,1.4538965225219727
-7.574514389038086,0.8552097082138062,1.410264015197754
-7.598174571990967,0.8569182753562927,1.366485595703125
-7.621891975402832,0.8586617708206177,1.3225237131118774
-7.6460185050964355,0.8604798316955566,1.2784329652786255
-7.670863151550293,0.8624072670936584,1.2342523336410522
-7.697768211364746,0.8645948171615601,1.1901729106903076
-7.725840091705322,0.8669416308403015,1.1460201740264893
-7.75413703918457,0.869342029094696,1.101635456085205
-7.782628059387207,0.8717926740646362,1.0570075511932373
-7.81325626373291,0.8745113015174866,1.0123815536499023
-7.84522008895874,0.8774078488349915,0.9676156044006348
-7.878409385681152,0.8804699778556824,0.9226689338684082
-7.911835670471191,0.8835873007774353,0.8774060606956482
-7.945544719696045,0.88676518201828,0.8318244218826294
-7.979410171508789,0.8899897933006287,0.78590327501297
-8.013693809509277,0.8932906985282898,0.739660918712616
-8.048954010009766,0.8967301249504089,0.6931344866752625
-8.085975646972656,0.9003958702087402,0.6463654637336731
-8.127236366271973,0.9045637845993042,0.5995010137557983
-8.168819427490234,0.9087977409362793,0.5521945357322693
-8.210824966430664,0.9131093621253967,0.5044431686401367
-8.2549409866333,0.9176867604255676,0.4563291370868683
-8.303377151489258,0.9227756857872009,0.4079187512397766
-8.35417652130127,0.9281588792800903,0.3590449392795563
-8.405448913574219,0.9336267113685608,0.30959102511405945
-8.457332611083984,0.9391950368881226,0.25954917073249817
-8.511667251586914,0.9450687170028687,0.20894969999790192
-8.572427749633789,0.9516896605491638,0.15781709551811218
-8.637255668640137,0.958796501159668,0.1060004010796547
-8.70307731628418,0.966048538684845,0.05340208113193512
-8.770951271057129,0.9735642671585083,1.61114433358772e-15
-8.84932804107666,0.9822825193405151,-0.054299477487802505
-8.931694030761719,0.9914811849594116,-0.10961388051509857
-9.01785659790039,1.0011401176452637,-0.16601738333702087
-9.119672775268555,1.012576937675476,-0.22387540340423584
-9.229582786560059,1.024954080581665,-0.2832489311695099
-9.341865539550781,1.0376381874084473,-0.3440812826156616
-9.466898918151855,1.0517836809158325,-0.4068673849105835
-9.615827560424805,1.0686317682266235,-0.4723953306674957
-9.835719108581543,1.0934189558029175,-0.5437137484550476
-10.105308532714844,1.1237910985946655,-0.6208333373069763
-11.72237491607666,1.304137945175171,-0.7924071550369263
-7.860799312591553,1.0484384298324585,6.614279747009277
-7.62891960144043,1.0123040676116943,6.339628219604492
-7.510909557342529,0.9916074275970459,6.16404390335083
-7.401074409484863,0.9722292423248291,5.998286247253418
-7.313190937042236,0.9559487700462341,5.853079319000244
-7.252100467681885,0.9433484077453613,5.731539249420166
-7.202502250671387,0.9323927760124207,5.620887756347656
-7.159226417541504,0.9223910570144653,5.516768932342529
-7.119981288909912,0.9130348563194275,5.417224407196045
-7.081603050231934,0.9039105772972107,5.319736480712891
-7.051318168640137,0.8959321975708008,5.229613780975342
-7.026514530181885,0.8887529969215393,5.144691467285156
-7.00257682800293,0.8817803263664246,5.06145715713501
-6.9790143966674805,0.8749493956565857,4.979518890380859
-6.958539962768555,0.8685961961746216,4.9007568359375
-6.942849159240723,0.8629248142242432,4.8262481689453125
-6.928307056427002,0.8574761152267456,4.753352642059326
-6.913895606994629,0.8521214127540588,4.681334495544434
-6.904884338378906,0.8475056886672974,4.613696098327637
-6.897900104522705,0.8432072997093201,4.5480570793151855
-6.891077995300293,0.8389948606491089,4.483138084411621
-6.884356498718262,0.8348596096038818,4.418882846832275
-6.877660274505615,0.830791175365448,4.355230331420898
-6.871048927307129,0.8267956376075745,4.292205333709717
-6.8654255867004395,0.8229799866676331,4.230350971221924
-6.863082408905029,0.8196157217025757,4.171025276184082
-6.861696243286133,0.8164210319519043,4.1127424240112305
-6.860691547393799,0.8133257031440735,4.055129528045654
-6.860743999481201,0.8104079961776733,3.998560667037964
-6.863602161407471,0.8078717589378357,3.94400691986084
-6.867016315460205,0.8054488897323608,3.8901166915893555
-6.870392799377441,0.8030686974525452,3.8365368843078613
-6.873753547668457,0.8007329702377319,3.7832729816436768
-6.877099990844727,0.7984413504600525,3.730319023132324
-6.880426406860352,0.7961926460266113,3.6776645183563232
-6.883736610412598,0.7939865589141846,3.625304937362671
-6.88701057434082,0.7918203473091125,3.57322359085083
-6.891078472137451,0.7897886633872986,3.521838665008545
-6.896247863769531,0.787925124168396,3.4712796211242676
-6.902576923370361,0.7862347364425659,3.4215433597564697
-6.9092116355896,0.7846187949180603,3.372180461883545
-6.9168572425842285,0.7831563949584961,3.323516845703125
-6.925391674041748,0.7818323969841003,3.275466203689575
-6.935235023498535,0.7806926965713501,3.228198766708374
-6.945062637329102,0.7795870900154114,3.18107271194458
-6.954865455627441,0.7785141468048096,3.1340792179107666
-6.964618682861328,0.7774708271026611,3.087203025817871
-6.97437858581543,0.7764630317687988,3.0404648780822754
-6.984093189239502,0.7754848599433899,2.9938371181488037
-6.993769645690918,0.774536669254303,2.9473190307617188
-7.003437042236328,0.7736214399337769,2.90091872215271
-7.0131001472473145,0.7727394104003906,2.854633331298828
-7.023056507110596,0.7719230055809021,2.8085777759552
-7.033630847930908,0.7712074518203735,2.762868642807007
-7.045350074768066,0.7706494331359863,2.717691421508789
-7.058117866516113,0.7702375054359436,2.6729812622070312
-7.0709309577941895,0.7698613405227661,2.628338575363159
-7.0844340324401855,0.7695907354354858,2.5839943885803223
-7.098339080810547,0.769393801689148,2.5398261547088623
-7.112597465515137,0.7692648768424988,2.495805501937866
-7.126889705657959,0.7691690921783447,2.4518110752105713
-7.141194820404053,0.7691039443016052,2.4078314304351807
-7.155503749847412,0.7690683603286743,2.363859176635742
-7.16981840133667,0.7690624594688416,2.3198914527893066
-7.184271335601807,0.7691003084182739,2.2759666442871094
-7.199517250061035,0.7692515850067139,2.232280969619751
-7.215831279754639,0.7695451974868774,2.1888985633850098
-7.233074188232422,0.7699654698371887,2.1457531452178955
-7.250536918640137,0.7704364657402039,2.102616786956787
-7.268080711364746,0.7709433436393738,2.0594427585601807
-7.285582065582275,0.7714729905128479,2.0161921977996826
-7.303168773651123,0.7720388174057007,1.972896695137024
-7.320824146270752,0.7726390957832336,1.9295471906661987
-7.33864688873291,0.7732840776443481,1.8861643075942993
-7.357213020324707,0.7740342617034912,1.8428858518600464
-7.376585483551025,0.7748960852622986,1.799709677696228
-7.396056652069092,0.7757946848869324,1.75644850730896
-7.416052341461182,0.7767748236656189,1.71319580078125
-7.437929153442383,0.7779781222343445,1.6702427864074707
-7.4610466957092285,0.7793369889259338,1.627410650253296
-7.484169960021973,0.7807220816612244,1.5844109058380127
-7.507441520690918,0.7821484804153442,1.5412697792053223
-7.5307698249816895,0.7836065292358398,1.497963309288025
-7.55422830581665,0.7851040363311768,1.4545013904571533
-7.577669143676758,0.7866256833076477,1.4108513593673706
-7.601342678070068,0.7881975769996643,1.3670554161071777
-7.625059127807617,0.7898001074790955,1.3230732679367065
-7.6488471031188965,0.7914363741874695,1.2789058685302734
-7.67269229888916,0.793104887008667,1.2345466613769531
-7.699041843414307,0.7950586080551147,1.190369725227356
-7.726884365081787,0.7971925139427185,1.1461750268936157
-7.755219459533691,0.7994033694267273,1.1017892360687256
-7.784014701843262,0.8016877770423889,1.0571959018707275
-7.815487861633301,0.8042741417884827,1.0126707553863525
-7.84840726852417,0.8070353865623474,0.9680086970329285
-7.881697654724121,0.8098609447479248,0.923054039478302
-7.915144920349121,0.8127289414405823,0.8777730464935303
-7.9488725662231445,0.8156524300575256,0.8321728110313416
-7.982756614685059,0.8186189532279968,0.7862328886985779
-8.017059326171875,0.8216555118560791,0.7399715185165405
-8.051525115966797,0.8247363567352295,0.693355917930603
-8.087322235107422,0.8279812335968018,0.6464731693267822
-8.127881050109863,0.8317412734031677,0.5995485186576843
-8.16935920715332,0.8356233835220337,0.5522310137748718
-8.211870193481445,0.8396392464637756,0.504507303237915
-8.257055282592773,0.8439570665359497,0.4564460217952728
-8.307132720947266,0.8488035202026367,0.40810322761535645
-8.35799503326416,0.853759229183197,0.3592090308666229
-8.409283638000488,0.858788013458252,0.30973222851753235
-8.46121883392334,0.8639128804206848,0.25966840982437134
-8.5140380859375,0.8691585063934326,0.2090078890323639
-8.57310962677002,0.8750736117362976,0.1578296571969986
-8.637332916259766,0.8815459609031677,0.1060013473033905
-8.703288078308105,0.8882273435592651,0.053403377532958984
-8.77286148071289,0.8953108787536621,1.6114952169861202e-15
-8.853787422180176,0.9035868048667908,-0.05432684347033501
-8.936216354370117,0.9120506644248962,-0.10966937243938446
-9.020304679870605,0.9207196235656738,-0.16606244444847107
-9.118851661682129,0.9309011101722717,-0.22385522723197937
-9.22848892211914,0.9422531723976135,-0.28321534395217896
-9.341588020324707,0.9539984464645386,-0.34407106041908264
-9.469762802124023,0.9673250317573547,-0.4069904685020447
-9.617979049682617,0.9827427864074707,-0.4725010097026825
-9.833233833312988,1.005059003829956,-0.5435764193534851
-10.103409767150879,1.033043622970581,-0.6207166910171509
-11.71720027923584,1.1985231637954712,-0.7920573353767395
-7.846351623535156,0.9549601674079895,6.602123260498047
-7.625816345214844,0.9233694672584534,6.3370490074157715
-7.502161979675293,0.9038054347038269,6.156865119934082
-7.3962082862854,0.8865931034088135,5.994342803955078
-7.311291217803955,0.8720934987068176,5.851558685302734
-7.249636650085449,0.8605296015739441,5.729592323303223
-7.1999101638793945,0.8505186438560486,5.618865013122559
-7.153341770172119,0.8410062789916992,5.512234210968018
-7.113073348999023,0.8323521018028259,5.41196870803833
-7.077942371368408,0.8244079947471619,5.316986560821533
-7.051632881164551,0.8175904154777527,5.229847431182861
-7.027279853820801,0.8110910654067993,5.145251750946045
-7.003310203552246,0.804724395275116,5.061987400054932
-6.9797186851501465,0.7984872460365295,4.980020999908447
-6.957052230834961,0.792439877986908,4.899709224700928
-6.937455654144287,0.7868223786354065,4.8224992752075195
-6.923109531402588,0.7818750739097595,4.749786853790283
-6.91230583190918,0.7773969769477844,4.680257797241211
-6.904926776885986,0.7733686566352844,4.613724708557129
-6.898034572601318,0.7694565057754517,4.548145771026611
-6.891195774078369,0.7656106948852539,4.483214855194092
-6.884459972381592,0.7618355751037598,4.418949127197266
-6.877758979797363,0.7581225037574768,4.355292797088623
-6.871131896972656,0.7544746398925781,4.292256832122803
-6.864668369293213,0.75090092420578,4.229884624481201
-6.85884428024292,0.747451901435852,4.168449401855469
-6.856756687164307,0.744462251663208,4.109781742095947
-6.85673713684082,0.741746187210083,4.052791595458984
-6.859761714935303,0.7394057512283325,3.99798846244812
-6.863150596618652,0.7371487617492676,3.9437477588653564
-6.866520881652832,0.7349333167076111,3.889835834503174
-6.869853496551514,0.7327567934989929,3.836235761642456
-6.8731818199157715,0.7306221723556519,3.782958507537842
-6.876484394073486,0.7285265922546387,3.729984998703003
-6.879768371582031,0.7264702916145325,3.6773128509521484
-6.883045673370361,0.7244539856910706,3.624941110610962
-6.886288166046143,0.7224742770195007,3.5728490352630615
-6.889523029327393,0.7205333709716797,3.5210437774658203
-6.892891883850098,0.7186456918716431,3.469590187072754
-6.898528099060059,0.7170321941375732,3.4195361137390137
-6.905533313751221,0.7155972719192505,3.370384931564331
-6.9145965576171875,0.7144104838371277,3.3224306106567383
-6.924477577209473,0.7133417129516602,3.275034189224243
-6.934295654296875,0.7122993469238281,3.2277615070343018
-6.94411039352417,0.7112894058227539,3.180636405944824
-6.953888893127441,0.7103081345558167,3.133639097213745
-6.963631629943848,0.7093552947044373,3.0867655277252197
-6.973370552062988,0.7084338068962097,3.040025472640991
-6.98307466506958,0.7075403928756714,2.9934003353118896
-6.992742538452148,0.7066745758056641,2.9468863010406494
-7.002397537231445,0.7058384418487549,2.9004881381988525
-7.012054920196533,0.7050332427024841,2.854207992553711
-7.021667003631592,0.7042540311813354,2.8080222606658936
-7.031292915344238,0.7035064697265625,2.7619502544403076
-7.041921138763428,0.7028889656066895,2.7163686752319336
-7.054070949554443,0.7024523019790649,2.6714484691619873
-7.067397117614746,0.7021609544754028,2.6270251274108887
-7.081451416015625,0.7019694447517395,2.5829062461853027
-7.095726013183594,0.7018269896507263,2.538891315460205
-7.1100568771362305,0.7017170786857605,2.4949142932891846
-7.124345302581787,0.7016297578811646,2.4509358406066895
-7.138644695281982,0.7015702724456787,2.4069714546203613
-7.152947902679443,0.7015377879142761,2.3630149364471436
-7.167257785797119,0.7015324831008911,2.3190629482269287
-7.18162202835083,0.7015587687492371,2.2751271724700928
-7.1967082023620605,0.7016817927360535,2.231410026550293
-7.213140964508057,0.7019616961479187,2.188082456588745
-7.230477809906006,0.7023547887802124,2.1449828147888184
-7.2479352951049805,0.7027845978736877,2.1018621921539307
-7.265472888946533,0.7032470107078552,2.058703899383545
-7.282967567443848,0.703730046749115,2.0154685974121094
-7.300546169281006,0.7042460441589355,1.9721882343292236
-7.318150997161865,0.7047893404960632,1.928842544555664
-7.335807800292969,0.7053623795509338,1.885434627532959
-7.35376501083374,0.7059889435768127,1.8420222997665405
-7.372369766235352,0.7067022323608398,1.7986811399459839
-7.392704010009766,0.7076054215431213,1.7556523084640503
-7.41463041305542,0.7086848020553589,1.712867259979248
-7.4373016357421875,0.7098588943481445,1.6701020002365112
-7.460467338562012,0.7111035585403442,1.6272844076156616
-7.483589172363281,0.7123674154281616,1.5842880010604858
-7.50686502456665,0.71366947889328,1.541151523590088
-7.530198574066162,0.7150005102157593,1.4978495836257935
-7.5536627769470215,0.7163676023483276,1.4543925523757935
-7.577108860015869,0.7177567481994629,1.4107470512390137
-7.60077428817749,0.7191904187202454,1.3669531345367432
-7.624510288238525,0.7206546664237976,1.3229780197143555
-7.648290157318115,0.7221469879150391,1.2788127660751343
-7.672139644622803,0.7236700654029846,1.2344577312469482
-7.696774005889893,0.7252912521362305,1.190019130706787
-7.7222490310668945,0.7270158529281616,1.1454874277114868
-7.751100063323975,0.7290821671485901,1.1012040376663208
-7.78242826461792,0.7314051389694214,1.0569803714752197
-7.814835548400879,0.7338531017303467,1.012586236000061
-7.847845554351807,0.7363812923431396,0.9679394364356995
-7.881129741668701,0.7389591336250305,0.9229875206947327
-7.914583683013916,0.7415769696235657,0.8777108192443848
-7.948319435119629,0.7442454695701599,0.8321148753166199
-7.982212066650391,0.7469532489776611,0.78617924451828
-8.016525268554688,0.7497252821922302,0.739922285079956
-8.05099868774414,0.7525372505187988,0.693310558795929
-8.085901260375977,0.7554146647453308,0.6463595032691956
-8.12226390838623,0.7584540843963623,0.5991341471672058
-8.163057327270508,0.7619328498840332,0.5518049597740173
-8.208441734313965,0.7658657431602478,0.5042967200279236
-8.257060050964355,0.7701261043548584,0.45644626021385193
-8.307154655456543,0.7745502591133118,0.4081043303012848
-8.358038902282715,0.779074490070343,0.35921093821525574
-8.409346580505371,0.7836650609970093,0.309734582901001
-8.461302757263184,0.7883435487747192,0.25967100262641907
-8.514090538024902,0.7931274175643921,0.20900920033454895
-8.568699836730957,0.7981092929840088,0.15774846076965332
-8.629695892333984,0.8037149310112,0.1059076189994812
-8.696447372436523,0.8098860383033752,0.053361400961875916
-8.773685455322266,0.8170636892318726,1.6116466241254419e-15
-8.854657173156738,0.8246198892593384,-0.054332178086042404
-8.9371337890625,0.8323477506637573,-0.10968063026666641
-9.02115535736084,0.840252161026001,-0.1660781055688858
-9.10986328125,0.848626434803009,-0.22363460063934326
-9.21795654296875,0.8588413000106812,-0.282892107963562
-9.335688591003418,0.8699907064437866,-0.34385380148887634
-9.465765953063965,0.8823285698890686,-0.4068186581134796
-9.613910675048828,0.8963908553123474,-0.4723011553287506
-9.819045066833496,0.9158105850219727,-0.542792022228241
-10.085630416870117,0.9410115480422974,-0.6196243166923523
-11.64716625213623,1.0871366262435913,-0.7873232364654541
4.050984859466553,1.0303245782852173,-11.544578552246094
4.307949066162109,1.0768706798553467,-12.039911270141602
4.572760105133057,1.1238154172897339,-12.536953926086426
4.845548152923584,1.171176552772522,-13.03581428527832
5.126389503479004,1.218957781791687,-13.536444664001465
5.484474182128906,1.2833349704742432,-14.217964172363281
5.7829999923706055,1.3320252895355225,-14.722193717956543
6.089749336242676,1.3811321258544922,-15.22786808013916
6.404797554016113,1.4306598901748657,-15.734940528869629
6.805543422698975,1.4976283311843872,-16.430036544799805
7.149084091186523,1.5502921342849731,-16.96424674987793
7.580848693847656,1.620359182357788,-17.684782028198242
8.02376937866211,1.6908596754074097,-18.405345916748047
8.398149490356445,1.7452223300933838,-18.945920944213867
8.862357139587402,1.8165781497955322,-19.666542053222656
9.338020324707031,1.8884007930755615,-20.387191772460938
9.825251579284668,1.9607031345367432,-21.107879638671875
10.324153900146484,2.0334956645965576,-21.828588485717773
-7.842398166656494,0.8631243705749512,6.598796844482422
-7.632578372955322,0.8357328176498413,6.342668533325195
-7.50089168548584,0.8171624541282654,6.15582275390625
-7.398308277130127,0.8019635677337646,5.996044158935547
-7.313612937927246,0.788874626159668,5.853416919708252
-7.251376628875732,0.7783538699150085,5.7309675216674805
-7.201680660247803,0.7693033814430237,5.620246887207031
-7.153729438781738,0.7605535387992859,5.512532711029053
-7.112544536590576,0.7526305317878723,5.411566257476807
-7.080033302307129,0.7457228899002075,5.318557262420654
-7.054912090301514,0.7396814227104187,5.232279300689697
-7.030541896820068,0.7338008284568787,5.147640228271484
-7.006518363952637,0.7280364036560059,5.064306259155273
-6.9828667640686035,0.7223885655403137,4.982267379760742
-6.9595537185668945,0.7168519496917725,4.90147066116333
-6.937988758087158,0.7115691900253296,4.822869777679443
-6.923693656921387,0.7071003317832947,4.750187397003174
-6.91454553604126,0.703218936920166,4.681774139404297
-6.907532215118408,0.6996123194694519,4.6154656410217285
-6.9005866050720215,0.6960681676864624,4.54982852935791
-6.893691062927246,0.6925836801528931,4.484838008880615
-6.886885166168213,0.6891618967056274,4.420506000518799
-6.880125045776367,0.6857973337173462,4.356791019439697
-6.873432636260986,0.6824912428855896,4.293694496154785
-6.866812705993652,0.6792432069778442,4.231205940246582
-6.860527992248535,0.6760781407356262,4.169472694396973
-6.857764720916748,0.6733077168464661,4.110385894775391
-6.8584675788879395,0.6709218621253967,4.053814888000488
-6.861690044403076,0.6688240766525269,3.9991118907928467
-6.865070819854736,0.6667816638946533,3.9448509216308594
-6.868445873260498,0.6647781133651733,3.8909265995025635
-6.871783256530762,0.6628096699714661,3.837313175201416
-6.87511682510376,0.6608792543411255,3.7840235233306885
-6.878423690795898,0.6589840650558472,3.731037139892578
-6.881706237792969,0.657123863697052,3.6783487796783447
-6.884988307952881,0.6553003787994385,3.625964403152466
-6.88823127746582,0.6535095572471619,3.573857069015503
-6.891469478607178,0.6517542004585266,3.522038459777832
-6.894769191741943,0.6500400304794312,3.4705352783203125
-6.899684906005859,0.6485127210617065,3.420109748840332
-6.907144069671631,0.647257387638092,3.371171236038208
-6.916564464569092,0.6462170481681824,3.323376178741455
-6.926462650299072,0.6452516317367554,3.275972843170166
-6.93629789352417,0.6443101167678833,3.2286932468414307
-6.94612979888916,0.6433979272842407,3.1815614700317383
-6.955925464630127,0.6425116062164307,3.134557008743286
-6.965683937072754,0.641650915145874,3.0876753330230713
-6.975434303283691,0.640818178653717,3.0409250259399414
-6.985156536102295,0.6400114297866821,2.994292974472046
-6.994834899902344,0.6392289400100708,2.947767972946167
-7.004512786865234,0.6384744048118591,2.901364326477051
-7.0141801834106445,0.6377467513084412,2.8550732135772705
-7.023809909820557,0.6370431780815125,2.8088791370391846
-7.0334153175354,0.6363648772239685,2.762784004211426
-7.04348087310791,0.6357552409172058,2.716970205307007
-7.055112361907959,0.6353133916854858,2.6718430519104004
-7.068811893463135,0.6350831985473633,2.6275510787963867
-7.083087921142578,0.6349296569824219,2.583503246307373
-7.0973663330078125,0.6348007917404175,2.539478302001953
-7.111698627471924,0.6347011923789978,2.495490312576294
-7.125991344451904,0.63462233543396,2.4515020847320557
-7.140294551849365,0.6345685720443726,2.4075276851654053
-7.154601097106934,0.6345392465591431,2.363560914993286
-7.168913841247559,0.6345343589782715,2.319598913192749
-7.183243751525879,0.6345548033714294,2.2756409645080566
-7.198256969451904,0.6346593499183655,2.2318902015686035
-7.214748859405518,0.6349174380302429,2.188570261001587
-7.232141494750977,0.6352775692939758,2.1454763412475586
-7.2496018409729,0.6356661915779114,2.1023457050323486
-7.267144203186035,0.6360844969749451,2.0591773986816406
-7.28464412689209,0.6365215182304382,2.015932559967041
-7.302226543426514,0.6369882225990295,1.9726420640945435
-7.3198347091674805,0.6374795436859131,1.9292863607406616
-7.337462425231934,0.6379950046539307,1.8858599662780762
-7.355109214782715,0.6385343670845032,1.842358946800232
-7.37330436706543,0.639143705368042,1.7989091873168945
-7.394107818603516,0.6400009989738464,1.7559856176376343
-7.416938304901123,0.6410549879074097,1.7134003639221191
-7.439925193786621,0.6421436667442322,1.6706910133361816
-7.463052749633789,0.6432656049728394,1.6278482675552368
-7.486151218414307,0.6444061994552612,1.584830403327942
-7.509403228759766,0.6455813050270081,1.5416725873947144
-7.532702445983887,0.6467817425727844,1.4983476400375366
-7.556156635284424,0.6480169296264648,1.454872727394104
-7.5795698165893555,0.6492699980735779,1.4112052917480469
-7.6032280921936035,0.6505656242370605,1.3673944473266602
-7.626932621002197,0.6518868207931519,1.3233983516693115
-7.6507062911987305,0.6532355546951294,1.2792167663574219
-7.674537181854248,0.6546110510826111,1.2348434925079346
-7.698535442352295,0.6560226678848267,1.190291404724121
-7.723364353179932,0.6575270891189575,1.1456528902053833
-7.752356052398682,0.6594074964523315,1.1013824939727783
-7.784442901611328,0.6615725159645081,1.0572540760040283
-7.817173957824707,0.6638135313987732,1.0128891468048096
-7.850210666656494,0.66610187292099,0.9682311415672302
-7.883516788482666,0.6684346795082092,0.9232670664787292
-7.9169793128967285,0.6708024740219116,0.8779764771461487
-7.950723648071289,0.6732162237167358,0.8323666453361511
-7.984627723693848,0.6756656765937805,0.7864171862602234
-8.01895523071289,0.6781734824180603,0.7401465773582458
-8.053441047668457,0.6807172298431396,0.6935209035873413
-8.088091850280762,0.6832979321479797,0.6465346813201904
-8.123180389404297,0.6859387159347534,0.5992017984390259
-8.163834571838379,0.6890727281570435,0.5518575310707092
-8.210091590881348,0.6927028298377991,0.5043981075286865
-8.259804725646973,0.6966477036476135,0.4565979838371277
-8.309938430786133,0.7006516456604004,0.4082410931587219
-8.360882759094238,0.7047478556632996,0.3593331277370453
-8.412252426147461,0.7089042067527771,0.3098415732383728
-8.464254379272461,0.7131386995315552,0.2597615718841553
-8.517106056213379,0.7174699902534485,0.2090832144021988
-8.570455551147461,0.7218689322471619,0.15778078138828278
-8.629894256591797,0.7268069982528687,0.1059100553393364
-8.697636604309082,0.7324708700180054,0.0533687025308609
-8.777263641357422,0.7391626834869385,1.6123039216925112e-15
-8.858357429504395,0.7460058927536011,-0.05435488000512123
-8.940957069396973,0.7530045509338379,-0.10972756147384644
-9.025107383728027,0.7601632475852966,-0.16615086793899536
-9.111005783081055,0.7674993872642517,-0.22366264462471008
-9.216796875,0.7765426635742188,-0.2828565239906311
-9.33696174621582,0.7868298888206482,-0.3439006507396698
-9.467658042907715,0.7980391383171082,-0.40689998865127563
-9.616238594055176,0.8107922077178955,-0.4724154770374298
-9.818329811096191,0.8280967473983765,-0.5427525043487549
-10.083195686340332,0.8507405519485474,-0.6194747686386108
-11.623856544494629,0.9811177849769592,-0.7857475876808167
4.20836877822876,1.446574330329895,-18.7407169342041
4.358181953430176,1.4582525491714478,-18.865623474121094
4.551758289337158,1.4836443662643433,-19.166553497314453
4.707561016082764,1.4958091974258423,-19.295183181762695
4.9095354080200195,1.5217431783676147,-19.599964141845703
5.116471767425537,1.5479941368103027,-19.90705680847168
5.328312397003174,1.5745272636413574,-20.21595573425293
5.545112609863281,1.601343035697937,-20.5266170501709
5.718297004699707,1.614710807800293,-20.663270950317383
5.943969249725342,1.64205801486969,-20.977153778076172
6.17479944229126,1.6697012186050415,-21.29280662536621
6.41077995300293,1.6976243257522583,-21.609966278076172
6.652027606964111,1.7258448600769043,-21.928796768188477
6.953540325164795,1.7683358192443848,-22.426448822021484
7.206690788269043,1.797182559967041,-22.748498916625977
7.46527624130249,1.8263291120529175,-23.072059631347656
7.729411602020264,1.8557907342910767,-23.397262573242188
7.415611267089844,1.7168049812316895,-21.555593490600586
1.5468034744262695,0.35183537006378174,-4.408112049102783
1.5600214004516602,0.34875017404556274,-4.3599677085876465
1.5730191469192505,0.34573355317115784,-4.312684059143066
1.5858070850372314,0.34278416633605957,-4.2662434577941895
1.598332166671753,0.3398873507976532,-4.220462322235107
1.6106327772140503,0.33704856038093567,-4.175408363342285
1.6227385997772217,0.33427104353904724,-4.1311211585998535
1.6345953941345215,0.3315408229827881,-4.087426662445068
1.646172046661377,0.3288494646549225,-4.0442214012146
1.6612505912780762,0.3269394338130951,-4.010613918304443
1.6866594552993774,0.3271006941795349,-4.002317905426025
1.7157527208328247,0.32797372341156006,-4.0025482177734375
1.7450028657913208,0.32886385917663574,-4.002779483795166
1.7744128704071045,0.3297712504863739,-4.003011226654053
1.803986668586731,0.33069610595703125,-4.003244400024414
1.833728313446045,0.33163875341415405,-4.00347900390625
1.863641381263733,0.33259937167167664,-4.003715991973877
1.8937287330627441,0.33357807993888855,-4.003952980041504
1.9239952564239502,0.33457526564598083,-4.004192352294922
1.9544438123703003,0.33559098839759827,-4.00443172454834
1.985079288482666,0.3366256654262543,-4.004673004150391
2.0159056186676025,0.33767956495285034,-4.004916667938232
2.046926259994507,0.33875277638435364,-4.005160808563232
2.078145980834961,0.3398456871509552,-4.005406856536865
2.1095690727233887,0.34095853567123413,-4.0056538581848145
2.141200065612793,0.3420916497707367,-4.005903244018555
2.1730425357818604,0.3432452380657196,-4.006153583526611
2.2051022052764893,0.3444196879863739,-4.006406307220459
2.2373833656311035,0.3456152677536011,-4.0066609382629395
2.269890308380127,0.3468322455883026,-4.0069169998168945
2.3026282787323,0.34807097911834717,-4.007174491882324
2.3356027603149414,0.34933188557624817,-4.007435321807861
2.36881685256958,0.3506149649620056,-4.007695198059082
5.1736040115356445,0.6949670314788818,-7.640932083129883
5.828059673309326,0.7758632302284241,-8.494759559631348
6.624326229095459,0.8740659952163696,-9.52949333190918
7.315721035003662,0.9568659663200378,-10.38752555847168
8.153088569641113,1.057199478149414,-11.426912307739258
9.012177467346191,1.158653974533081,-12.468437194824219
9.893592834472656,1.2612900733947754,-13.512467384338379
10.79736328125,1.36509370803833,-14.55855941772461
11.723998069763184,1.470111608505249,-15.60692024230957
12.67387580871582,1.576373815536499,-16.657562255859375
13.786056518554688,1.70102059841156,-17.89045524597168
14.7996244430542,1.8116899728775024,-18.963966369628906
-7.832915782928467,0.770972490310669,6.590817928314209
-7.640908718109131,0.7482248544692993,6.34959077835083
-7.494095325469971,0.7301391959190369,6.150245189666748
-7.397785186767578,0.7171580195426941,5.9956207275390625
-7.313232898712158,0.7054663896560669,5.853112697601318
-7.249422550201416,0.6959066390991211,5.729423522949219
-7.199828624725342,0.6878232359886169,5.618801116943359
-7.151492595672607,0.6799623370170593,5.510808944702148
-7.108244895935059,0.6726824641227722,5.408294677734375
-7.080348014831543,0.6669414043426514,5.318793296813965
-7.055353164672852,0.6615501642227173,5.232606410980225
-7.030798435211182,0.6562736630439758,5.147828102111816
-7.006608486175537,0.6511028409004211,5.064371109008789
-6.9828081130981445,0.6460381150245667,4.98222541809082
-6.959352493286133,0.6410735249519348,4.901329040527344
-6.936367511749268,0.6362188458442688,4.821743011474609
-6.921288967132568,0.6321514248847961,4.748537540435791
-6.913803577423096,0.6288323998451233,4.681272029876709
-6.906744003295898,0.6256029605865479,4.614938735961914
-6.899753093719482,0.6224295496940613,4.549278736114502
-6.892755508422852,0.6193044781684875,4.484229564666748
-6.885810852050781,0.6162322163581848,4.419816493988037
-6.878915786743164,0.6132115721702576,4.356025218963623
-6.872096538543701,0.61024409532547,4.2928595542907715
-6.865345478057861,0.6073281764984131,4.230301856994629
-6.859070777893066,0.6044989824295044,4.1685872077941895
-6.855322360992432,0.6019352674484253,4.108922004699707
-6.856793403625488,0.5998696088790894,4.052824974060059
-6.859750270843506,0.5979708433151245,3.997981548309326
-6.863058567047119,0.596138596534729,3.943694591522217
-6.866370677947998,0.5943419337272644,3.8897509574890137
-6.869644641876221,0.5925767421722412,3.8361191749572754
-6.872914791107178,0.59084552526474,3.7828116416931152
-6.876156806945801,0.5891456604003906,3.7298073768615723
-6.87938117980957,0.5874776840209961,3.6771059036254883
-6.882597923278809,0.5858420133590698,3.6247053146362305
-6.885779857635498,0.5842359662055969,3.572585344314575
-6.888952732086182,0.5826612114906311,3.520752191543579
-6.892898082733154,0.5811833143234253,3.4695932865142822
-6.897830963134766,0.57981938123703,3.4191906452178955
-6.90534782409668,0.5787019729614258,3.3702945709228516
-6.9139814376831055,0.5777063369750977,3.3221349716186523
-6.9236321449279785,0.5768229365348816,3.2746341228485107
-6.933420181274414,0.5759777426719666,3.227354049682617
-6.943202495574951,0.575158417224884,3.180220603942871
-6.952934741973877,0.574361264705658,3.133209228515625
-6.962643146514893,0.5735880732536316,3.08632755279541
-6.972344398498535,0.5728399753570557,3.0395779609680176
-6.982011795043945,0.5721146464347839,2.9929449558258057
-6.991640090942383,0.5714114308357239,2.9464213848114014
-7.001259803771973,0.570732593536377,2.9000167846679688
-7.0108747482299805,0.5700781941413879,2.8537275791168213
-7.020450592041016,0.5694453120231628,2.8075356483459473
-7.030426979064941,0.5688693523406982,2.7616100311279297
-7.041676044464111,0.5684202909469604,2.7162742614746094
-7.053782939910889,0.5680637359619141,2.671339511871338
-7.067063331604004,0.5678244829177856,2.626901149749756
-7.080790996551514,0.5676434636116028,2.58266544342041
-7.094998836517334,0.5675230026245117,2.5386312007904053
-7.109471321105957,0.5674455761909485,2.494708776473999
-7.123907566070557,0.5673868060112,2.4507851600646973
-7.138244152069092,0.5673418045043945,2.40683650970459
-7.1525468826293945,0.5673155188560486,2.362882375717163
-7.166855812072754,0.56731116771698,2.3189330101013184
-7.18117094039917,0.567328691482544,2.274984359741211
-7.196074485778809,0.5674138069152832,2.231213331222534
-7.212591648101807,0.5676469206809998,2.187915802001953
-7.2300519943237305,0.5679746270179749,2.1448564529418945
-7.247507095336914,0.5683220624923706,2.101738214492798
-7.265044689178467,0.5686960816383362,2.0585825443267822
-7.282538414001465,0.5690867304801941,2.015349864959717
-7.300004005432129,0.5694952607154846,1.9720417261123657
-7.317435264587402,0.5699211955070496,1.9286539554595947
-7.334954738616943,0.5703740119934082,1.8852152824401855
-7.353104114532471,0.5708957314491272,1.8418567180633545
-7.372076511383057,0.5715011358261108,1.7986094951629639
-7.3919196128845215,0.5721936225891113,1.7554658651351929
-7.412886619567871,0.5729924440383911,1.712464451789856
-7.435331344604492,0.5739246606826782,1.6696594953536987
-7.45851993560791,0.5749331712722778,1.6268595457077026
-7.481666088104248,0.5759574174880981,1.58388090133667
-7.504968166351318,0.5770125985145569,1.540761947631836
-7.5283284187316895,0.5780913233757019,1.497477650642395
-7.551821708679199,0.5791993141174316,1.4540380239486694
-7.575295925140381,0.5803250074386597,1.4104094505310059
-7.599004745483398,0.5814879536628723,1.3666349649429321
-7.622771263122559,0.5826745629310608,1.3226763010025024
-7.646596431732178,0.5838850736618042,1.2785296440124512
-7.670469284057617,0.5851187109947205,1.2341889142990112
-7.694681644439697,0.5863978266716003,1.1896955966949463
-7.721466064453125,0.5878923535346985,1.1453713178634644
-7.749864101409912,0.5895289778709412,1.1010284423828125
-7.780758857727051,0.5913747549057007,1.0567536354064941
-7.813412666320801,0.5933732986450195,1.012401819229126
-7.846518039703369,0.5954252481460571,0.9677757024765015
-7.879904270172119,0.5975177884101868,0.9228439927101135
-7.913445949554443,0.5996415615081787,0.8775846362113953
-7.94727897644043,0.6018070578575134,0.8320059776306152
-7.981264591217041,0.6040039658546448,0.7860859036445618
-8.01567554473877,0.6062532067298889,0.7398438453674316
-8.050251007080078,0.6085350513458252,0.6932461857795715
-8.08498764038086,0.6108495593070984,0.6462864875793457
-8.120162963867188,0.6132180094718933,0.5989792346954346
-8.161212921142578,0.6160507798194885,0.551680326461792
-8.2072114944458,0.6192777752876282,0.5042211413383484
-8.257084846496582,0.6228179931640625,0.45644766092300415
-8.307385444641113,0.6264113783836365,0.4081156849861145
-8.358499526977539,0.6300874948501587,0.3592306971549988
-8.410041809082031,0.6338176727294922,0.309760183095932
-8.462218284606934,0.637617826461792,0.25969910621643066
-8.5152587890625,0.6415056586265564,0.2090378850698471
-8.568761825561523,0.6454513072967529,0.15774962306022644
-8.62524127960205,0.6496445536613464,0.10585295408964157
-8.696677207946777,0.6549879908561707,0.05336281284689903
-8.77665901184082,0.6609993577003479,1.6121928544973025e-15
-8.858120918273926,0.6671470403671265,-0.05435342714190483
-8.941102981567383,0.6734349131584167,-0.1097293570637703
-9.025649070739746,0.6798668503761292,-0.16616083681583405
-9.111827850341797,0.6864487528800964,-0.22368282079696655
-9.208667755126953,0.6938619017601013,-0.2826070487499237
-9.333674430847168,0.703426718711853,-0.343779593706131
-9.46375846862793,0.7134050726890564,-0.4067324101924896
-9.615011215209961,0.7250117659568787,-0.4723552167415619
-9.817075729370117,0.740485429763794,-0.5426831841468811
-10.078307151794434,0.7604619264602661,-0.6191744208335876
-11.591558456420898,0.8749910593032837,-0.7835642099380493
5.080636978149414,1.583602786064148,-23.292749404907227
1.2409462928771973,0.3762190043926239,-5.526185035705566
1.2603760957717896,0.37195318937301636,-5.455894470214844
1.279297113418579,0.36777547001838684,-5.386866569519043
1.2978442907333374,0.3637169599533081,-5.3195576667785645
1.3159757852554321,0.35975730419158936,-5.253669738769531
1.333706259727478,0.35589322447776794,-5.189155578613281
1.3510686159133911,0.35212644934654236,-5.126039981842041
1.3680806159973145,0.3484548330307007,-5.064291477203369
1.3847248554229736,0.3448674976825714,-5.003752708435059
1.5007728338241577,0.3656685948371887,-5.296451091766357
1.6215381622314453,0.38672640919685364,-5.591614246368408
1.7468879222869873,0.4079965651035309,-5.888548374176025
1.8232979774475098,0.41722095012664795,-6.010608196258545
1.9569692611694336,0.43893834948539734,-6.311586380004883
2.0954291820526123,0.4608823359012604,-6.614390850067139
2.238654851913452,0.4830377399921417,-6.918749809265137
2.4455442428588867,0.5178677439689636,-7.402768135070801
2.5999763011932373,0.5405406355857849,-7.711062431335449
2.575488567352295,0.5258893966674805,-7.486393928527832
1.5471177101135254,0.31037625670433044,-4.409007549285889
1.5603500604629517,0.3076569139957428,-4.360886096954346
1.5733622312545776,0.304997980594635,-4.313624382019043
1.5861642360687256,0.3023982644081116,-4.267204284667969
1.5987032651901245,0.2998448610305786,-4.221442699432373
1.6109976768493652,0.2973388135433197,-4.17635440826416
1.6230690479278564,0.29488179087638855,-4.131961822509766
1.6348919868469238,0.29246678948402405,-4.088168144226074
1.646470069885254,0.2900925278663635,-4.044953346252441
1.6615625619888306,0.2884095311164856,-4.011366844177246
1.6869843006134033,0.2885531783103943,-4.00308895111084
1.71608304977417,0.2893233001232147,-4.003318786621094
1.745338797569275,0.2901085317134857,-4.003550052642822
1.7747546434402466,0.2909090220928192,-4.003782272338867
1.8043344020843506,0.29172492027282715,-4.004015922546387
1.8340818881988525,0.292556494474411,-4.004251003265381
1.8640005588531494,0.29340389370918274,-4.00448751449585
1.8940941095352173,0.29426732659339905,-4.004725456237793
1.9243661165237427,0.2951469421386719,-4.0049638748168945
1.954820990562439,0.2960430383682251,-4.005204677581787
1.9854625463485718,0.29695582389831543,-4.005446434020996
2.0162947177886963,0.2978854775428772,-4.00568962097168
2.0473215579986572,0.2988322675228119,-4.005934238433838
2.078547239303589,0.29979634284973145,-4.0061798095703125
2.1099770069122314,0.3007781207561493,-4.006428241729736
2.1416139602661133,0.301777720451355,-4.006677627563477
2.1734626293182373,0.3027953505516052,-4.006927967071533
